ply
format ascii 1.0
element vertex 740
property float x
property float y
property float z
property float nx
property float ny
property float nz
property uchar diffuse_red
property uchar diffuse_green
property uchar diffuse_blue
end_header
-1.36439 1.90516 11.0584 -0.732956 -0.181613 -0.655586 235 204 58
-1.36851 1.90814 11.0618 -0.571395 -0.196489 -0.796806 235 204 58
-1.32775 1.90061 11.0275 -0.532689 -0.328446 -0.779978 235 204 57
-1.29087 1.89292 11.0199 -0.594788 -0.210219 -0.775909 240 208 57
-1.25433 1.88354 11.0161 -0.62941 -0.360534 -0.688373 244 214 60
-1.21717 1.87978 11.0002 -0.536278 -0.15709 -0.829294 246 216 59
-1.19334 1.90949 10.9801 -0.4955 -0.307142 -0.812492 249 220 61
-1.16134 1.90345 10.9283 -0.164505 -0.226788 -0.959951 250 223 62
-1.11689 1.91038 10.9554 -0.666122 -0.232824 -0.708572 250 222 59
-1.05989 1.89615 10.9376 0.127336 -0.419732 -0.898672 254 228 61
-0.325711 2.00297 10.9248 0.708116 -0.0725102 -0.702363 249 225 72
-0.313578 1.98604 10.9386 0.713095 -0.0243235 -0.700645 250 226 74
-0.18509 2.01133 10.9771 0.365317 0.597446 -0.713864 245 222 75
-0.0576285 2.07776 11.1371 0.754877 -0.0494231 -0.654002 241 219 72
0.10607 2.10128 11.2872 0.688058 -0.00872992 -0.725603 235 219 89
0.105212 2.10609 11.2844 0.698817 -0.105791 -0.707434 235 218 89
0.172995 2.13929 11.429 0.69419 -0.060853 -0.717215 229 213 92
0.247231 2.21417 11.669 0.686657 -0.0209349 -0.72668 221 208 99
0.310906 2.22684 11.745 0.370642 -0.00663307 -0.928752 210 201 107
0.357772 2.22755 11.7464 -0.255737 -0.0318123 -0.966223 98 93 66
0.390224 2.21954 11.6987 -0.181487 0.0194363 -0.983201 55 54 49
-3.53654 1.67699 10.9684 0.665653 0.386986 -0.638081 213 40 33
-3.43289 1.6854 11.0233 0.73253 0.325207 -0.59803 230 50 44
-3.36598 1.69343 11.0404 -0.51565 -0.642801 -0.566491 233 49 44
-3.33312 1.70122 11.0795 -0.336869 -0.396361 -0.854059 235 51 45
-3.10217 1.71924 11.0417 0.798159 -0.463852 -0.384426 221 48 40
-3.06359 1.71642 10.9689 0.846807 -0.342228 -0.407183 222 50 41
-3.0539 1.71786 11.0089 0.816602 -0.420635 -0.395255 224 51 42
-2.92034 1.74032 11.006 0.884878 -0.296003 -0.359684 217 42 32
-2.83044 1.78458 11.1435 0.754154 -0.451135 -0.477209 236 51 44
-2.76818 1.78993 11.1033 0.647523 -0.581804 -0.492156 236 53 45
-2.69776 1.80425 11.1713 0.42081 -0.838714 -0.345657 227 58 45
-2.6127 1.96799 11.9702 -0.588844 -0.620386 -0.518058 241 84 67
-2.55676 1.9542 11.8953 -0.66255 -0.507524 -0.55086 167 65 53
-2.43495 1.96128 11.861 -0.706017 -0.39796 -0.585805 13 9 7
-2.43495 1.96128 11.861 -0.706017 -0.39796 -0.585805 13 10 8
-1.91809 2.10169 12.2304 0.256016 0.174499 -0.950792 12 12 10
-1.87778 2.13328 12.2336 -0.0834498 0.0147299 -0.996403 52 43 25
-1.87161 2.10643 12.2373 -0.353505 -0.00481997 -0.93542 52 42 25
-1.8351 2.13404 12.2171 -0.614364 -0.000770241 -0.789022 185 156 81
-1.54847 1.94203 11.2667 -0.778718 -0.194932 -0.596322 231 197 58
-1.50325 1.97972 11.2433 -0.800224 0.0305818 -0.598921 232 199 55
-1.48627 1.95171 11.2224 -0.790308 0.0834447 -0.607002 230 197 52
-1.43485 1.96146 11.1336 -0.812446 -0.0345811 -0.582011 233 200 55
-1.39259 1.93074 11.0924 -0.78048 -0.136019 -0.610205 234 202 57
-1.35045 1.9401 11.0365 -0.311519 -0.043719 -0.949234 238 207 60
-1.30677 1.93198 11.0041 -0.425859 -0.257484 -0.867379 238 207 57
-1.26976 1.92462 10.9978 -0.516172 -0.159937 -0.84142 240 210 57
-1.24074 1.92075 10.9996 -0.570285 -0.382172 -0.727131 243 213 59
-1.20343 1.91882 10.9775 -0.625542 -0.388301 -0.676697 248 219 61
-1.03621 1.92444 10.9051 -0.831674 -0.209673 -0.514156 253 230 63
-0.996538 1.94155 10.8894 -0.552747 -0.568588 -0.609244 253 230 64
-0.370887 2.00282 10.8989 0.66497 0.290071 -0.688239 248 224 68
-0.310241 2.04273 10.9248 0.696562 -0.0660341 -0.714452 248 224 72
-0.263575 2.02589 10.9251 0.659538 0.166245 -0.733057 248 225 76
-0.210585 2.05032 10.9636 0.71373 -0.207441 -0.668998 246 224 76
0.0569402 2.12764 11.218 0.697313 -0.0640173 -0.713902 239 220 83
0.144419 2.19459 11.4676 0.74444 -0.0494023 -0.665859 233 215 85
0.137609 2.20707 11.4162 0.747298 -0.06809 -0.660992 233 216 85
0.200901 2.24611 11.6128 0.696875 -0.0831444 -0.712357 227 212 89
0.288997 2.27204 11.7407 0.00969432 -0.130276 -0.99143 216 205 103
0.33499 2.2658 11.7483 0.093238 -0.121156 -0.988245 181 176 104
0.379146 2.26639 11.7395 -0.11692 -0.151448 -0.981526 63 61 51
0.356546 2.30348 11.7415 0.64523 0.123448 -0.753949 113 109 75
0.413955 2.31438 11.7765 0.687505 -0.100303 -0.719219 57 58 52
-3.58925 1.69578 10.9665 0.241124 0.22047 -0.94512 220 36 33
-3.51745 1.70885 10.9622 0.680356 0.354717 -0.64132 224 39 37
-3.50341 1.71447 10.9824 0.758504 0.315373 -0.570274 221 39 36
-3.47369 1.6929 10.9705 0.679167 0.381715 -0.626918 231 48 44
-3.45076 1.73273 10.9869 0.753105 0.403335 -0.519763 207 33 28
-3.40592 1.71262 10.9973 0.772756 0.371537 -0.514596 217 42 36
-3.3478 1.7259 11.0277 -0.0994019 -0.360145 -0.927585 236 53 49
-3.33426 1.76417 11.0477 -0.0587776 -0.418626 -0.906255 226 39 37
-3.29848 1.76823 11.063 -0.157085 -0.268957 -0.950256 225 40 37
-3.25002 1.75702 11.0099 0.249376 -0.664094 -0.704834 228 42 39
-3.20777 1.7435 11.0158 0.329578 -0.599151 -0.729655 233 50 46
-3.16651 1.75359 10.9742 -0.666794 0.125834 -0.734542 228 44 41
-3.12613 1.75523 10.9661 -0.360409 0.194308 -0.912332 228 46 42
-3.1212 1.75047 10.9829 0.0224702 -0.327303 -0.944652 231 49 45
-3.04526 1.7531 10.9821 0.067846 -0.00431299 -0.997687 234 54 50
-3.08214 1.75335 10.9949 -0.076746 -0.409712 -0.908981 233 53 48
-3.02195 1.78929 10.9905 -0.00506437 0.332152 -0.943212 225 45 42
-2.97712 1.79122 11.0018 0.0268831 0.326407 -0.944847 231 49 46
-2.99922 1.75341 10.9844 0.41695 0.278016 -0.865367 233 52 47
-2.93179 1.78668 10.9972 0.74756 0.426292 -0.509343 216 46 38
-2.85382 1.7994 11.0394 0.67925 -0.539512 -0.49754 228 40 36
-2.7654 1.82492 11.0672 0.800456 0.151883 -0.579829 222 39 33
-2.73925 1.81718 11.0994 0.691192 -0.645809 -0.324322 217 42 33
-2.69634 1.84315 11.1143 0.600859 -0.559981 -0.570429 233 50 44
-2.6584 1.84828 11.1711 0.646765 -0.577364 -0.498343 234 58 49
-2.65411 1.87835 11.2262 0.725607 -0.561114 -0.398303 221 48 39
-2.66197 1.8609 11.1975 0.829033 -0.344988 -0.440098 217 47 38
-2.44646 2.03902 11.9002 0.786287 0.143416 -0.600986 15 7 8
-2.40702 2.03943 11.9345 0.770464 -0.0497997 -0.635535 9 7 3
-1.92519 2.18132 12.2201 0.663014 0.234446 -0.710948 11 11 10
-1.94288 2.14562 12.2397 0.384236 -0.108435 -0.916845 12 12 9
-1.85723 2.17614 12.2318 -0.427321 -0.126073 -0.895266 150 127 70
-1.60816 1.98685 11.2874 -0.710356 -0.220904 -0.668278 230 195 64
-1.46826 2.00398 11.1976 -0.750983 0.204314 -0.627917 235 203 56
-1.40166 1.98916 11.1062 -0.809422 -0.121735 -0.574471 234 202 58
-1.33243 1.97203 11.0118 -0.738227 -0.0995358 -0.667168 239 208 60
-1.28113 1.97022 11.0194 -0.676558 -0.207367 -0.706589 239 209 58
-1.31671 1.9817 11.0356 -0.589419 -0.0514332 -0.806189 238 208 59
-1.2498 1.99954 11.0086 -0.65608 -0.330515 -0.678468 240 210 58
-1.2278 1.95813 10.9842 -0.528601 -0.374233 -0.761926 243 213 59
-1.2092 2.0037 11.0087 0.606446 0.122176 -0.785682 244 215 60
-1.19494 1.95176 10.9347 -0.586769 -0.398899 -0.704686 247 219 62
-1.1789 1.97117 10.9721 0.209419 -0.0361619 -0.977157 248 220 62
-1.09331 1.99846 10.9564 -0.735124 -0.50826 -0.448626 251 225 63
-1.05893 1.99582 10.9182 -0.752363 -0.47789 -0.453399 252 227 65
-1.02431 1.98335 10.8725 -0.726708 -0.419458 -0.544014 253 229 65
-0.98599 1.98165 10.8748 -0.587237 -0.508465 -0.629774 253 229 65
-0.361069 2.03486 10.8639 0.479928 0.174366 -0.859806 247 223 69
-0.390861 2.05562 10.933 0.627601 0.256109 -0.735205 249 224 68
-0.317103 2.07522 10.9411 0.675883 0.0224345 -0.736668 248 225 72
-0.280122 2.07024 10.9368 0.389309 0.0222446 -0.920839 248 225 73
-0.221351 2.10405 10.9858 -0.0629012 0.543513 -0.837041 247 224 72
-0.189216 2.1148 10.9824 0.713579 -0.194816 -0.672942 247 224 72
-0.0915205 2.12767 11.1151 0.558783 0.149799 -0.815673 245 223 74
-0.0308286 2.1525 11.1206 0.741693 0.018513 -0.670484 241 219 75
-0.0365274 2.15535 11.0867 0.10845 -0.234732 -0.965992 242 221 78
0.0188307 2.1604 11.1651 0.21917 -0.0488792 -0.974462 240 221 81
0.24253 2.27706 11.6455 0.695925 -0.0997328 -0.711155 225 212 99
0.240087 2.28868 11.6424 0.697581 -0.12461 -0.705587 226 213 99
0.310042 2.30914 11.7321 0.000234041 -0.0942799 -0.995546 212 204 108
-3.56121 1.72439 10.951 0.697423 0.361375 -0.618878 218 33 31
-3.5471 1.76394 10.9864 0.661818 0.408128 -0.628831 214 30 28
-3.36884 1.75755 11.0149 0.261558 -0.264916 -0.92812 226 39 37
-3.35053 1.79007 11.0041 -0.108013 -0.495249 -0.86201 223 33 32
-3.31275 1.79854 11.0431 0.770961 -0.467481 -0.432528 215 30 28
-3.26985 1.79171 11.0063 0.102761 -0.450861 -0.886659 220 31 30
-3.22914 1.79055 11.0061 0.146256 0.00913063 -0.989205 220 31 30
-3.18601 1.79181 10.9922 -0.40292 0.304029 -0.863262 217 31 30
-3.14557 1.79182 10.9773 -0.344002 0.121686 -0.93105 214 30 30
-3.1077 1.79444 10.9778 -0.31402 0.0635501 -0.947287 215 34 33
-3.06354 1.79614 10.9923 0.116281 0.332194 -0.936016 218 38 36
-3.0669 1.78871 10.9877 -0.310479 -0.259593 -0.914447 220 41 38
-3.02044 1.79142 10.9789 0.271247 0.0576842 -0.96078 223 43 40
-3.00032 1.82617 10.981 0.2342 0.0135082 -0.972095 213 34 31
-2.95624 1.8236 10.9869 0.396141 0.265028 -0.879109 221 39 36
-2.86542 1.82838 11.0414 0.777365 0.304402 -0.550494 214 36 29
-2.76012 1.84392 11.038 0.377624 -0.670718 -0.638387 225 39 35
-2.74584 1.85496 11.0558 0.717335 0.29458 -0.63139 223 39 35
-2.69363 1.89174 11.0941 0.862325 0.00680265 -0.506309 211 38 31
-2.68643 1.88691 11.1216 0.825853 0.0253772 -0.563314 219 41 35
-2.6368 1.89433 11.188 0.777921 -0.41865 -0.468584 219 46 38
-2.61478 1.92674 11.3224 0.851614 -0.368206 -0.373065 215 52 42
-2.446 2.06007 11.87 0.65535 0.110402 -0.747213 41 14 13
-2.41474 2.08641 11.8834 0.712279 0.0453852 -0.700427 46 18 18
-2.11698 2.04383 11.542 0.671566 0.336277 -0.66024 11 10 11
-2.04358 2.14379 11.8808 0.452546 0.550304 -0.701689 10 8 9
-1.94558 2.22391 12.2385 -0.2501 -0.00697941 -0.968195 10 10 8
-1.92291 2.22055 12.2523 -0.472794 -0.150238 -0.868271 14 12 11
-1.87752 2.21948 12.2454 0.0885471 -0.0563432 -0.994477 100 84 48
-1.49393 2.03349 11.2215 -0.78537 0.096354 -0.611482 237 206 59
-1.42874 2.02278 11.1512 -0.788885 0.0966201 -0.606897 236 204 59
-1.37892 2.0244 11.0817 -0.801816 0.0392046 -0.596283 235 204 58
-1.29596 2.01261 11.0049 -0.406644 0.0520422 -0.912103 240 209 60
-1.15455 2.05054 11.0102 -0.690917 -0.419237 -0.588959 246 217 61
-1.08883 2.03037 10.9122 -0.562201 -0.452953 -0.691927 250 222 63
-1.04953 2.03408 10.9031 -0.62155 -0.359357 -0.696088 250 224 65
-0.448525 2.06619 10.8557 0.765748 0.0173294 -0.642907 251 224 66
-0.406772 2.09569 10.9074 0.713531 -0.0748683 -0.696612 250 225 68
-0.375049 2.09562 10.9339 0.474955 0.0831253 -0.876076 249 225 68
-0.349925 2.11234 10.9441 0.291619 0.590584 -0.752442 249 225 70
-0.285224 2.11362 10.9478 0.561955 0.348881 -0.749992 247 224 70
-0.0803106 2.15278 11.0612 0.279134 -0.309059 -0.909157 244 222 74
-0.0117942 2.18717 11.1097 0.71712 -0.0394841 -0.69583 240 218 76
0.0314053 2.18779 11.1219 0.570609 -0.139271 -0.809326 240 221 84
0.126799 2.2524 11.3277 0.695873 -0.0786251 -0.713848 232 216 88
0.196766 2.30249 11.4832 0.738848 -0.055889 -0.67155 225 212 94
0.275742 2.33772 11.6869 0.0705406 -0.141519 -0.987419 219 206 104
0.324312 2.34116 11.7016 0.542872 0.331173 -0.77176 189 183 108
-3.58674 1.78 10.9605 0.707653 0.344669 -0.616791 212 29 28
-3.38613 1.79217 11.0059 0.71188 0.274735 -0.646334 221 32 31
-3.36243 1.81774 10.983 0.716708 0.363422 -0.595193 219 31 30
-3.12546 1.81991 10.9871 -0.37411 -0.212991 -0.902595 212 30 30
-3.1317 1.83771 11.0229 0.763553 0.417016 -0.493036 188 24 22
-3.08776 1.83335 11.002 0.159166 0.309417 -0.937511 209 30 29
-3.0898 1.82376 10.9916 -0.356463 -0.277343 -0.892197 210 31 29
-3.05396 1.86698 11.0507 0.519199 0.531224 -0.669503 201 27 27
-3.03895 1.82451 10.9629 -0.332058 -0.342962 -0.8787 210 31 30
-3.03956 1.82508 10.9638 -0.338886 -0.343319 -0.87595 210 31 30
-3.01306 1.86632 11.049 0.57496 0.557082 -0.599233 190 27 24
-2.99204 1.87956 11.0729 0.753585 0.417926 -0.507394 193 29 25
-2.9363 1.8614 11.0019 0.278954 0.474827 -0.8347 214 32 29
-2.89269 1.86044 11.0002 0.396324 0.428684 -0.811885 221 38 35
-2.84219 1.897 11.0587 0.797045 0.340123 -0.499035 206 37 32
-2.77896 1.89445 11.0459 0.432825 0.603142 -0.669987 214 37 33
-2.73109 1.88589 11.0318 0.656103 0.386294 -0.64831 218 39 35
-2.71585 1.91416 11.0692 0.872635 0.0799834 -0.48178 198 32 25
-2.68535 1.93261 11.1208 0.726824 0.175478 -0.664029 216 37 34
-2.63356 1.94414 11.1714 0.833853 -0.126788 -0.537228 211 39 33
-2.64629 1.95194 11.1922 0.80341 0.0359217 -0.594342 215 39 34
-2.61753 1.94655 11.1869 0.765405 -0.278586 -0.580125 220 44 39
-2.62262 1.93064 11.1705 0.810006 -0.220085 -0.543556 217 43 37
-2.62262 1.93064 11.1705 0.810006 -0.220085 -0.543556 217 43 37
-2.47549 2.08923 11.8192 0.807231 -0.0361328 -0.589128 137 50 41
-2.36578 2.13308 11.924 0.652677 0.255066 -0.71341 8 6 6
-2.11175 2.12829 11.7185 0.665077 0.312275 -0.678349 11 8 10
-2.11175 2.12829 11.7185 0.665077 0.312275 -0.678349 9 7 8
-1.963 2.27114 12.2774 -0.31772 0.142313 -0.937444 9 8 8
-1.93332 2.29173 12.2756 -0.723078 0.0939614 -0.684346 14 10 8
-1.90103 2.25838 12.243 -0.0404052 0.0268922 -0.998821 55 45 27
-1.85481 2.25879 12.243 -0.0692819 0.0425617 -0.996689 185 153 80
-1.64563 2.08072 11.3522 -0.537423 -0.202272 -0.818696 222 185 62
-1.59091 2.10455 11.2848 -0.80539 -0.19526 -0.559662 230 196 62
-1.55575 2.08778 11.2633 -0.523115 -0.378267 -0.763717 234 200 60
-1.51647 2.07717 11.24 -0.52492 -0.272954 -0.806198 235 203 58
-1.47457 2.07223 11.1947 -0.641713 -0.447627 -0.622764 238 207 58
-1.39526 2.0497 11.1194 -0.739151 0.236945 -0.630486 237 206 59
-1.27096 2.04339 11.014 -0.744835 -0.347183 -0.569811 240 210 60
-1.18294 2.08573 10.9983 -0.749033 -0.476594 -0.460226 242 213 59
-1.14369 2.0885 10.9857 -0.492651 -0.46137 -0.737857 244 215 60
-1.10398 2.09177 10.9754 -0.745642 -0.403779 -0.530076 246 217 61
-1.076 2.07093 10.8961 -0.712975 -0.383079 -0.587297 248 220 63
-1.04423 2.05712 10.8441 -0.749676 -0.351076 -0.561009 249 223 65
-1.07374 2.06388 10.8979 -0.764488 -0.391303 -0.512288 248 221 63
-0.408852 2.14632 10.9363 0.694938 -0.390411 -0.603854 251 226 69
-0.361006 2.1503 10.9181 0.519414 0.148001 -0.841608 250 226 70
-0.149601 2.19679 11.073 0.713533 -0.18348 -0.676169 246 223 69
-0.0969685 2.18358 11.0194 0.343321 -0.381268 -0.85835 244 223 74
-0.0772207 2.23866 11.0914 -0.241915 -0.145943 -0.959259 243 222 75
-0.0567495 2.20203 11.0867 0.594674 0.0452736 -0.802691 242 221 76
0.0500374 2.25394 11.1817 0.702245 -0.147616 -0.696464 238 220 84
0.0956914 2.29605 11.3152 0.751878 -0.179267 -0.634463 233 215 82
0.236213 2.36125 11.6184 0.690726 -0.0503785 -0.72136 221 208 98
0.262459 2.38191 11.617 0.632096 0.161473 -0.757879 221 209 104
-3.61154 1.8313 10.953 0.703548 0.350265 -0.618333 211 28 29
-3.57365 1.80867 10.9469 0.714369 0.330369 -0.616874 213 29 29
-3.32206 1.87826 11.0044 0.792578 -0.424019 -0.43821 219 30 30
-3.24764 1.8736 11.029 0.745409 -0.457463 -0.484864 224 34 37
-3.18282 1.88794 11.0331 0.39999 0.078042 -0.913191 216 36 37
-3.12553 1.87467 11.0555 0.760666 0.418539 -0.496198 184 23 21
-3.12685 1.87088 11.021 0.587329 0.590159 -0.553857 183 22 20
-3.1015 1.90732 11.067 0.44364 0.500075 -0.743713 198 28 32
-3.04387 1.89889 11.0024 0.432915 0.498147 -0.751288 197 29 30
-3.02763 1.91868 11.0546 0.803505 0.333046 -0.493418 176 28 26
-2.96389 1.9074 11.0557 0.683258 0.446513 -0.577741 198 29 26
-2.8973 1.94409 11.0678 0.047984 0.346169 -0.936944 213 35 36
-2.91603 1.89911 11.0178 0.0714981 0.220965 -0.972658 216 33 33
-2.85897 1.94013 11.0629 0.309634 0.667995 -0.67669 207 32 30
-2.87577 1.90451 11.0477 0.577965 0.487857 -0.65418 212 34 31
-2.77102 1.93544 11.0548 0.532528 0.470555 -0.703557 218 39 38
-2.69255 1.97339 11.089 0.603201 0.0559168 -0.795627 219 40 38
-2.65178 1.98168 11.1576 0.739482 0.340421 -0.580758 204 37 31
-2.65586 1.95676 11.1331 0.731029 0.252375 -0.633958 214 40 36
-2.61458 1.99025 11.1859 0.811514 -0.068224 -0.580337 215 44 39
-2.59845 2.01321 11.2295 0.891337 0.0110038 -0.453209 200 42 36
-2.41578 2.14189 11.8451 0.80251 -0.0252015 -0.596106 32 12 11
-2.13873 2.16713 11.798 0.495897 0.567163 -0.65758 5 4 3
-2.13869 2.16727 11.7986 0.496926 0.566245 -0.657595 5 4 4
-1.89619 2.32093 12.2564 -0.639748 0.000675917 -0.768584 107 89 51
-1.6626 2.13012 11.3569 -0.211291 -0.0495013 -0.976169 223 185 65
-1.62462 2.1246 11.3222 -0.803158 -0.200431 -0.561039 224 188 60
-1.57151 2.13738 11.2407 -0.764733 -0.110158 -0.634861 231 197 60
-1.53679 2.12006 11.2261 -0.671219 -0.273548 -0.688939 234 201 59
-1.49975 2.10885 11.1977 -0.475536 -0.326291 -0.816945 237 205 59
-1.46088 2.11301 11.1944 -0.769785 -0.296495 -0.565263 238 207 58
-1.29392 2.08946 11.005 -0.498923 -0.393253 -0.772287 240 210 59
-1.25673 2.08993 10.9832 -0.720675 -0.386418 -0.575594 240 210 61
-1.22008 2.08373 10.9664 -0.679158 -0.479148 -0.556023 242 212 61
-1.17024 2.12596 10.9964 -0.401916 -0.62945 -0.665024 244 214 62
-1.13729 2.11973 10.9442 -0.39292 -0.609025 -0.688986 244 215 63
-1.06422 2.1173 10.8994 -0.783466 -0.221244 -0.580717 248 221 66
-1.07229 2.11183 10.9139 -0.816027 -0.301131 -0.493377 248 220 65
-1.07229 2.11183 10.9139 -0.816027 -0.301131 -0.493377 248 220 65
-0.935187 2.13134 10.9453 0.0624205 0.714671 -0.69667 247 219 62
-0.907875 2.11026 10.774 -0.252835 0.687809 -0.680436 249 223 67
-0.33297 2.18521 10.9281 0.534297 -0.68084 -0.500982 250 227 72
-0.228512 2.23834 10.9826 0.615762 -0.559105 -0.555193 245 222 69
-0.192117 2.23051 10.9988 0.571804 -0.62549 -0.530851 246 223 69
-0.121221 2.23125 11.0551 0.39476 -0.489195 -0.777723 245 222 71
-0.0515721 2.282 11.0777 0.253373 -0.244839 -0.935872 242 221 77
-0.00705535 2.29362 11.1379 0.744545 -0.295028 -0.598841 240 218 77
0.0217472 2.29727 11.1574 0.746821 -0.247057 -0.617431 239 217 78
0.129735 2.33647 11.2987 0.691615 -0.0512176 -0.720449 231 216 93
0.204991 2.38768 11.5088 0.74347 -0.230092 -0.627942 223 210 96
-3.6345 1.86903 10.9896 0.0352176 -0.635685 -0.771145 206 30 33
-3.63123 1.87077 10.9889 0.0581198 -0.635075 -0.770261 206 31 34
-3.59322 1.85082 10.9866 -0.101896 -0.495972 -0.862339 209 27 28
-3.55745 1.8685 10.9709 -0.100592 -0.430284 -0.897071 215 32 33
-3.52098 1.8858 10.9579 -0.216038 -0.576337 -0.788139 219 33 33
-3.39592 1.87817 10.8969 0.850264 -0.379242 -0.365003 208 30 26
-3.33435 1.90932 10.9707 0.785211 -0.366118 -0.499401 223 32 33
-3.29534 1.91248 11.0029 0.334115 -0.495257 -0.801928 223 32 34
-3.25656 1.91131 11.0192 0.425488 -0.483028 -0.765274 222 35 36
-3.21948 1.90277 11.0024 0.486803 0.214084 -0.846871 221 38 40
-3.19204 1.93401 11.0345 0.558868 0.111484 -0.821729 218 96 108
-3.1442 1.92084 11.0562 0.572172 0.230907 -0.786957 207 71 80
-3.15451 1.91616 11.0504 0.422551 0.164637 -0.891261 213 69 77
-3.07348 1.93373 11.0486 0.632172 0.318953 -0.706135 201 88 96
-3.0397 1.95719 11.0487 -0.00361909 -0.129325 -0.991596 228 170 187
-2.99091 1.93979 11.0532 -0.0746102 -0.311516 -0.947307 193 53 60
-2.94645 1.96067 11.05 0.0304099 -0.760447 -0.648687 199 79 88
-2.87556 1.97328 11.0414 0.211776 -0.189334 -0.958803 196 60 67
-2.83744 1.97561 11.0648 0.29238 -0.203081 -0.93449 198 38 41
-2.79549 1.97003 11.0513 0.0614366 0.256989 -0.96446 204 32 32
-2.75419 1.96795 11.0493 0.372998 0.430635 -0.821843 207 31 29
-2.71166 2.01369 11.0939 0.406655 -0.122256 -0.905365 203 37 40
-2.72672 1.97729 11.0963 0.676012 0.387594 -0.62672 198 32 26
-2.67193 2.01146 11.1008 0.490149 0.182915 -0.85223 215 37 35
-2.63542 2.01258 11.135 0.62964 0.24533 -0.737134 216 41 37
-2.44587 2.1794 11.8228 0.796001 0.0259272 -0.60474 136 51 43
-2.40821 2.22079 11.9153 0.703005 0.313231 -0.638491 16 5 5
-1.96602 2.36851 12.4043 -0.465814 0.195102 -0.863106 15 13 11
-1.96602 2.36851 12.4043 -0.465814 0.195102 -0.863106 15 14 12
-1.93018 2.35119 12.301 -0.487572 0.226529 -0.843183 26 21 13
-1.93994 2.40999 12.3804 -0.590527 0.100438 -0.800744 35 29 21
-1.9146 2.36547 12.303 -0.700144 0.159243 -0.696018 66 53 29
-1.93994 2.40999 12.3804 -0.590527 0.100438 -0.800744 35 29 21
-1.93941 2.41082 12.3839 -0.601865 0.0973212 -0.792646 35 30 21
-1.91419 2.36604 12.3043 -0.653155 0.197699 -0.730961 67 55 30
-1.62727 2.19225 11.3031 -0.728246 -0.307068 -0.612672 225 189 61
-1.64733 2.15697 11.3077 -0.229917 -0.103017 -0.967743 225 187 64
-1.60319 2.16063 11.282 -0.807354 -0.112039 -0.579333 228 192 61
-1.51764 2.15633 11.2046 -0.758885 -0.201542 -0.619253 236 204 59
-1.46688 2.16608 11.1506 -0.641981 -0.078248 -0.762718 239 207 59
-1.43397 2.15149 11.1477 -0.728838 -0.222418 -0.647553 240 209 58
-1.31728 2.13729 11.0605 -0.692768 -0.567963 -0.444398 241 211 60
-1.13555 2.13104 10.9394 -0.0717446 -0.285393 -0.955722 243 215 63
-1.1033 2.11596 10.886 -0.725943 -0.417122 -0.546823 246 218 65
-1.05791 2.13949 10.8396 -0.506595 0.152396 -0.848609 246 221 67
-0.898688 2.16982 10.9437 -0.83387 0.0178239 -0.551673 249 224 67
-0.881208 2.16018 10.8227 -0.382651 0.29804 -0.8745 247 221 66
-0.83705 2.18032 10.8908 -0.344653 0.284893 -0.894456 248 222 67
-0.795416 2.17583 10.8548 -0.0767514 0.523496 -0.848564 249 224 68
-0.298798 2.25648 10.9736 0.656507 -0.486265 -0.576668 247 224 73
-0.172228 2.2899 11.0112 0.699906 -0.321975 -0.637545 244 221 72
-0.138919 2.271 11.0226 0.678818 -0.514689 -0.523738 242 219 69
-0.0944743 2.281 11.0696 0.561562 -0.3168 -0.764386 244 223 75
0.0463626 2.33964 11.2094 0.707309 -0.202815 -0.677185 235 215 79
0.0915648 2.37256 11.2606 0.691908 -0.0443465 -0.720623 233 217 88
-3.6338 1.90363 10.965 0.145345 -0.738733 -0.65814 220 124 135
-3.59497 1.8876 10.9742 0.00121792 -0.560247 -0.828325 209 37 41
-3.59495 1.88704 10.9691 0.129148 -0.611785 -0.78041 209 38 42
-3.55786 1.90522 10.9569 0.0548959 -0.597799 -0.799764 215 41 43
-3.52135 1.92271 10.9453 0.00876937 -0.574875 -0.818194 217 37 38
-3.37648 1.93027 10.9092 0.779734 -0.321398 -0.537326 226 35 34
-3.40784 1.93226 10.9215 0.862339 -0.347485 -0.368274 208 31 28
-3.4068 1.92967 10.909 0.864938 -0.33937 -0.369743 208 31 28
-3.34192 1.9404 10.9563 0.672673 -0.411663 -0.614853 227 34 35
-3.30519 1.94337 10.9826 0.570128 -0.413316 -0.710017 223 33 35
-3.26659 1.94651 10.9971 0.40368 -0.373627 -0.835132 217 53 61
-3.22143 1.97195 11.004 0.324315 -0.369633 -0.870741 239 202 219
-3.20385 1.97963 11.0357 0.537581 0.139128 -0.831655 240 213 230
-3.06112 1.99387 11.0574 -0.227659 -0.0996392 -0.96863 237 222 241
-3.04343 1.99432 11.0344 0.0444953 -0.457473 -0.88811 237 224 242
-2.99322 1.97458 11.0285 0.0489364 -0.819172 -0.571457 232 196 217
-2.93932 1.99236 11.0026 0.074663 -0.888872 -0.45203 238 215 232
-2.89954 1.99052 11.0121 0.0682893 -0.72984 -0.680199 230 180 196
-2.8133 2.00679 11.0458 0.310594 -0.236521 -0.920646 213 130 143
-2.77483 2.00921 11.0665 0.288064 -0.172596 -0.941929 204 85 95
-2.74751 2.01048 11.0624 0.43968 0.160769 -0.883649 199 65 74
-2.72886 2.04981 11.0765 0.439908 -0.102852 -0.892134 233 184 195
-2.68995 2.04898 11.0917 0.48974 -0.127223 -0.862536 197 79 88
-2.65196 2.04953 11.116 0.486325 -0.123511 -0.865005 203 40 41
-2.61326 2.0486 11.1332 0.433041 -0.026365 -0.900989 222 45 44
-2.57826 2.06162 11.2128 0.813031 0.276333 -0.512465 198 36 33
-2.57826 2.06162 11.2128 0.813031 0.276333 -0.512465 198 36 33
-2.57826 2.06162 11.2128 0.813031 0.276333 -0.512465 198 36 33
-2.56456 2.07278 11.1921 0.738498 0.111886 -0.664907 213 44 39
-2.47525 2.22491 11.8457 0.810022 -0.0716895 -0.582 182 67 52
-2.44432 2.25353 11.8701 0.815999 0.00737424 -0.578007 117 46 37
-2.45732 2.32704 12.1231 0.790353 0.214873 -0.573735 78 31 24
-2.41736 2.2495 11.8978 0.662079 0.345113 -0.665243 40 15 12
-1.73573 2.26158 11.481 -0.794887 -0.0263872 -0.606184 201 154 51
-1.7557 2.24401 11.5735 -0.790232 -0.172549 -0.588013 197 148 50
-1.6475 2.23192 11.309 -0.643418 -0.327535 -0.691906 224 185 62
-1.49712 2.1871 11.1566 -0.646692 0.0252078 -0.762334 237 205 58
-1.46549 2.21744 11.1598 -0.629824 -0.23846 -0.739228 240 208 59
-1.44163 2.20669 11.1815 -0.743093 -0.223846 -0.630639 241 210 60
-1.4143 2.18617 11.1213 -0.780818 -0.124139 -0.612301 241 210 60
-1.36063 2.18051 11.0679 0.100929 0.619677 -0.77834 241 211 61
-1.32964 2.1704 11.0439 -0.0691088 0.594502 -0.801119 240 210 61
-1.15714 2.16321 10.9269 0.27991 -0.440946 -0.85277 243 215 64
-1.08747 2.17133 10.9351 -0.597379 -0.208453 -0.774394 242 215 64
-1.07104 2.19013 10.8597 -0.781748 -0.228034 -0.580406 245 219 67
-1.0353 2.18105 10.8593 -0.294119 -0.200179 -0.934571 247 221 68
-1.02022 2.16939 10.8959 -0.132291 0.407706 -0.903479 246 220 65
-0.905675 2.21898 10.9041 -0.829321 0.00625271 -0.558738 245 219 66
-0.859377 2.21161 10.8725 -0.452882 0.192543 -0.870532 245 220 66
-0.257422 2.29014 10.9746 0.421431 -0.42094 -0.803247 245 223 73
-0.220477 2.29211 10.9718 0.690153 -0.337488 -0.640149 245 222 73
-0.111595 2.32549 11.0546 0.679831 -0.350547 -0.644164 241 219 72
-0.0670225 2.33458 11.0964 0.570462 -0.317631 -0.757419 241 220 76
-0.0113836 2.37134 11.1835 0.703773 -0.0952661 -0.704009 239 218 78
-3.63292 1.93701 10.9296 0.0838347 -0.803969 -0.588732 235 217 235
-3.59489 1.92107 10.9446 0.0903937 -0.682847 -0.724948 224 142 153
-3.55648 1.94041 10.9314 0.11744 -0.652982 -0.748213 226 134 145
-3.57355 1.94379 10.9271 0.147684 -0.725295 -0.672411 235 185 199
-3.52122 1.95713 10.9207 -0.0728419 -0.50618 -0.859346 219 89 98
-3.46183 1.95881 10.903 -0.228459 -0.378277 -0.897058 221 36 33
-3.46276 1.95922 10.9042 -0.21748 -0.394239 -0.892904 221 36 33
-3.47821 1.92619 10.9196 -0.252525 -0.34775 -0.90294 220 33 31
-3.4858 1.93743 10.9252 -0.143892 -0.475501 -0.867867 220 35 33
-3.35473 1.97737 10.9403 0.319674 -0.499127 -0.805407 228 37 36
-3.31698 1.9775 10.9533 0.556999 -0.364594 -0.746206 220 47 51
-3.28016 1.9819 10.9796 0.556588 -0.331209 -0.761912 229 134 147
-3.03284 2.01224 10.9732 -0.498173 -0.701828 -0.509177 239 233 244
-2.99146 1.99974 10.9581 0.0347186 -0.863533 -0.503095 237 229 243
-2.9442 2.0208 10.9574 -0.156705 -0.798636 -0.581055 238 232 244
-2.91861 2.02799 11.0037 0.423784 -0.0331748 -0.905155 240 233 245
-2.88277 2.03394 11.0495 0.34223 -0.152682 -0.927128 237 226 242
-2.83137 2.04036 11.0305 0.240707 -0.151941 -0.958631 238 226 243
-2.79417 2.04552 11.0637 0.227053 -0.135211 -0.964451 237 217 234
-2.7668 2.04714 11.0418 0.496678 0.0390411 -0.867056 235 220 235
-2.70759 2.08615 11.0794 0.489668 -0.0578972 -0.869985 239 225 241
-2.6687 2.08736 11.1013 0.47865 -0.178711 -0.859626 231 185 196
-2.66904 2.08619 11.1013 0.469629 -0.187805 -0.862657 230 182 192
-2.63059 2.0877 11.1241 0.524199 -0.18817 -0.830546 205 79 82
-2.5933 2.09924 11.152 0.636511 -0.121367 -0.761659 210 48 45
-2.55615 2.11911 11.1886 0.713493 0.177156 -0.677897 205 41 35
-2.43054 2.37625 12.1953 0.793507 0.201997 -0.57406 19 5 3
-1.63102 2.27027 11.2946 -0.600175 -0.336322 -0.725726 225 187 60
-1.59288 2.26191 11.2567 -0.799345 -0.157592 -0.579839 230 195 60
-1.54973 2.22782 11.2184 -0.480971 -0.058119 -0.874808 238 204 62
-1.52184 2.24865 11.1802 -0.670146 -0.0391782 -0.741194 237 205 59
-1.40372 2.24046 11.1205 0.387637 0.361558 -0.847947 241 211 60
-1.36133 2.22918 11.0951 0.197991 0.533873 -0.822058 242 214 63
-1.32162 2.23629 11.0522 -0.746973 -0.156877 -0.646081 238 210 60
-1.24624 2.21168 10.9597 -0.794439 0.10079 -0.598922 242 215 64
-1.15052 2.22606 10.9086 -0.796991 0.0820512 -0.598392 242 216 66
-1.10604 2.20226 10.8882 -0.699079 -0.0557595 -0.712867 244 218 67
-0.878381 2.24922 10.8838 -0.713078 -0.087384 -0.695618 246 221 69
-0.897158 2.26032 10.8881 -0.814236 0.0982354 -0.572163 246 221 69
-0.837189 2.25258 10.8926 -0.118955 -0.280747 -0.952382 247 221 69
-0.350995 2.28539 10.8708 0.574949 -0.685205 -0.447132 244 221 70
-0.305973 2.30071 10.9262 0.698109 -0.365832 -0.615476 245 223 74
-0.223137 2.35599 11.0137 0.752363 -0.322394 -0.574467 242 219 73
-0.223368 2.35566 11.0123 0.72826 -0.397505 -0.558235 242 219 73
-0.223368 2.35566 11.0123 0.72826 -0.397505 -0.558235 242 219 73
-0.181931 2.36362 11.0344 0.616943 -0.560614 -0.552352 243 221 74
-0.167075 2.38215 11.0576 0.69769 -0.484487 -0.527733 241 218 71
-0.126068 2.37623 11.0408 0.67346 -0.423313 -0.606018 241 220 73
-0.0509108 2.37587 11.0207 0.504136 -0.746621 -0.434055 239 217 75
-0.0415567 2.40444 11.128 0.708277 -0.192411 -0.679207 241 219 78
0.10178 2.45437 11.3046 0.693666 -0.0553382 -0.718168 231 214 89
-3.63332 1.97126 10.9049 -0.36466 -0.767129 -0.527766 236 227 241
-3.59494 1.97319 10.906 -0.069562 -0.700921 -0.709839 236 225 240
-3.59496 1.95506 10.9172 0.0508243 -0.647072 -0.760733 235 218 235
-3.55619 1.9762 10.915 -0.110543 -0.469083 -0.876208 236 215 231
-3.52127 1.99212 10.8996 -0.0451327 -0.50028 -0.864686 236 185 197
-3.48219 1.99136 10.896 -0.0388376 -0.49222 -0.869604 218 63 65
-3.48314 1.99156 10.8961 -0.0358776 -0.495429 -0.867907 218 65 68
-3.44251 1.98967 10.8873 -0.165753 -0.405439 -0.898969 224 38 37
-3.44338 1.9897 10.8876 -0.162552 -0.415422 -0.894987 224 38 38
-3.40049 1.98505 10.9348 0.50809 -0.461743 -0.727075 227 36 36
-3.36966 2.01377 10.9061 0.452313 -0.483891 -0.749175 229 40 38
-3.33102 2.0141 10.9301 0.436516 -0.495774 -0.750774 220 67 74
-3.32932 2.0132 10.9313 0.429284 -0.508387 -0.746497 220 70 77
-3.29384 2.01542 10.9503 0.549042 -0.365308 -0.751733 239 188 205
-3.25736 2.02094 10.9819 0.633024 -0.379333 -0.674824 242 228 241
-3.21437 2.02071 11.0159 0.773413 -0.405843 -0.486954 239 231 242
-3.08664 2.02773 10.8684 0.830098 -0.405438 -0.382828 230 225 239
-3.05582 2.05234 10.9418 0.83169 -0.398024 -0.387128 223 219 233
-3.06986 2.04304 10.8808 0.805109 -0.46135 -0.372767 228 223 238
-2.90121 2.07122 11.044 0.745056 0.348978 -0.568424 226 220 240
-2.81396 2.08281 11.065 0.772699 0.257194 -0.580334 224 215 237
-2.79005 2.09285 11.0625 0.789656 0.256146 -0.557524 223 216 237
-2.74767 2.08522 11.0504 0.485447 -0.160031 -0.859495 234 228 245
-2.72872 2.13171 11.0991 0.767692 0.16777 -0.618467 223 218 238
-2.68422 2.12383 11.0811 0.407828 -0.172163 -0.89668 229 222 241
-2.68723 2.12444 11.0884 0.347829 0.0749073 -0.934561 229 222 241
-2.64604 2.12396 11.1029 0.489266 -0.182909 -0.852739 229 210 226
-2.61563 2.13006 11.1257 0.649173 -0.274336 -0.709446 223 171 180
-2.56591 2.16701 11.1729 0.684028 0.239862 -0.688892 216 140 144
-2.53075 2.15219 11.2135 0.661086 0.346867 -0.665318 204 46 40
-2.47486 2.40748 12.1628 0.751211 0.292231 -0.591847 190 77 63
-2.37666 2.46608 12.2531 0.77801 0.225285 -0.586469 9 5 2
-1.65938 2.32237 11.3427 -0.803739 -0.0903459 -0.588083 218 178 58
-1.6197 2.31114 11.2927 -0.747167 -0.125616 -0.652658 224 187 58
-1.58857 2.28711 11.2453 -0.687082 -0.202537 -0.69778 232 197 61
-1.55283 2.27293 11.2186 -0.555899 -0.0386809 -0.830349 237 204 62
-1.52511 2.29343 11.1793 -0.642907 -0.272079 -0.715992 237 206 62
-1.23058 2.26549 10.9483 -0.759183 0.198768 -0.619784 243 217 66
-1.1735 2.26472 10.967 -0.782088 0.150427 -0.60474 243 217 66
-0.914398 2.29896 10.9076 -0.674955 0.375549 -0.635137 245 220 67
-0.316418 2.36281 10.9584 0.671251 -0.4595 -0.58162 243 220 73
-0.0736381 2.44135 11.0613 0.755095 -0.06612 -0.652273 238 216 73
0.0618534 2.48663 11.291 0.676585 0.0341841 -0.73557 232 214 83
-3.55572 2.01323 10.9029 -0.108668 -0.407746 -0.906606 238 231 244
-3.5017 2.02264 10.8821 -0.0279735 -0.48211 -0.875664 239 203 213
-3.46242 2.02235 10.8807 -0.0247745 -0.482234 -0.875692 219 68 73
-3.46291 2.02246 10.8809 -0.00422084 -0.492023 -0.870572 219 69 74
-3.38985 2.03227 10.9011 0.298802 -0.52807 -0.794896 227 41 39
-3.34118 2.04917 10.9083 0.489442 -0.360439 -0.794059 220 87 96
-3.30617 2.05162 10.9307 0.581931 -0.294778 -0.757933 240 205 217
-3.26943 2.05433 10.9572 0.542443 -0.366977 -0.755701 242 234 243
-3.2322 2.05954 10.9715 0.836295 -0.404211 -0.370438 235 228 238
-3.10424 2.04514 10.8286 0.744994 -0.568852 -0.348413 227 224 237
-3.06536 2.06989 10.8148 0.348549 -0.627516 -0.69623 234 234 244
-2.76639 2.12394 11.0512 0.7848 0.341398 -0.517239 215 210 231
-2.75263 2.14382 11.0792 0.815299 0.285569 -0.503724 213 208 229
-2.66702 2.16039 11.0905 0.595026 0.0995709 -0.797515 225 222 241
-2.66259 2.164 11.0973 0.595639 0.130204 -0.79263 225 221 240
-2.625 2.1657 11.1267 0.524755 0.0469776 -0.849956 222 212 234
-2.59729 2.17675 11.1338 0.732839 -0.209646 -0.647299 218 207 225
-2.53505 2.21517 11.1768 0.679207 0.314839 -0.662989 209 159 164
-2.44024 2.43272 12.1298 0.788604 0.211291 -0.577459 107 41 33
-2.42549 2.48502 12.1928 0.777737 0.231888 -0.584255 50 15 11
-2.3564 2.50825 12.2787 0.828936 0.0236146 -0.558845 10 5 5
-1.70173 2.38824 11.4295 -0.639456 -0.00894728 -0.768776 210 169 59
-1.63461 2.35561 11.3102 -0.806474 -0.139082 -0.574679 221 183 57
-1.59695 2.33882 11.2468 -0.602113 -0.130952 -0.787598 230 193 61
-1.56403 2.31934 11.2073 -0.478979 -0.263321 -0.837401 235 201 63
-1.47837 2.32263 11.1753 0.32728 0.25374 -0.910222 240 209 62
-1.4177 2.31791 11.126 0.348232 0.330786 -0.877106 240 210 61
-1.37736 2.30247 11.0746 0.220103 0.335594 -0.915932 242 213 63
-1.37873 2.30112 11.0764 0.230529 0.355673 -0.905733 242 213 63
-1.25044 2.30324 10.9604 -0.416183 -0.139235 -0.898557 244 218 67
-1.1944 2.29553 10.9731 -0.605227 0.232848 -0.761238 245 219 68
-1.15924 2.30381 10.9513 -0.791017 0.123619 -0.599175 246 219 68
-1.13874 2.28558 10.9191 -0.776164 0.169726 -0.607258 245 220 69
-1.10762 2.32698 10.9587 -0.677902 0.348673 -0.647206 247 222 70
-0.97712 2.34355 10.9286 0.421625 0.416565 -0.805423 246 219 65
-0.931015 2.33539 10.9235 0.594333 -0.285672 -0.751771 246 221 68
-0.88932 2.33561 10.9189 0.534267 0.233807 -0.812338 247 222 69
-0.0216967 2.47487 11.1407 0.70725 -0.152067 -0.690416 236 215 79
0.000391969 2.49373 11.1616 0.704753 -0.131781 -0.697106 234 215 80
0.0521683 2.5441 11.2592 0.701461 -0.12668 -0.701359 234 215 85
-3.57434 2.05656 10.9427 -0.0729576 -0.449524 -0.890284 235 232 244
-3.52093 2.053 10.8734 -0.208474 -0.384101 -0.899447 236 232 244
-3.48241 2.0525 10.8626 -0.00221938 -0.407662 -0.91313 239 208 218
-3.44274 2.05359 10.8673 0.0100975 -0.450497 -0.892721 222 66 70
-3.41782 2.05581 10.8796 0.110079 -0.437951 -0.892234 229 45 44
-3.40297 2.06556 10.8743 0.242874 -0.453058 -0.857759 228 48 45
-3.40826 2.06116 10.8744 0.0862804 -0.212176 -0.973415 228 46 44
-3.36098 2.08255 10.8783 0.375506 -0.371637 -0.849048 227 109 118
-3.35255 2.08396 10.8838 0.265627 -0.424674 -0.865502 230 138 148
-3.32253 2.08289 10.8961 0.360408 -0.383182 -0.850457 238 213 222
-3.28632 2.08707 10.9106 0.464598 -0.390041 -0.794995 240 236 242
-3.10484 2.08072 10.802 0.593011 -0.741798 -0.313167 218 217 231
-3.02859 2.08311 10.8008 0.883693 -0.133633 -0.448586 219 217 235
-2.94065 2.11957 10.8219 0.827092 0.255293 -0.500744 209 209 229
-2.88784 2.12165 10.8609 0.797905 0.330386 -0.504176 208 208 228
-2.85418 2.11448 10.8729 0.791481 0.33833 -0.50901 212 212 232
-2.76246 2.14985 10.8982 0.749024 0.322874 -0.578546 211 212 235
-2.74851 2.1823 10.9712 0.804363 0.213803 -0.554336 211 210 233
-2.67294 2.21709 11.1269 0.709541 0.278643 -0.647232 221 219 241
-2.62885 2.21284 11.131 0.684513 0.243054 -0.687289 220 218 236
-2.57541 2.23843 11.1797 0.66805 0.266672 -0.69469 209 197 218
-2.5754 2.25958 11.1907 0.755846 0.167 -0.633094 210 199 222
-2.5179 2.2729 11.3131 0.889906 0.00207438 -0.456139 188 90 87
-2.5179 2.2729 11.3131 0.889906 0.00207438 -0.456139 188 90 87
-2.5179 2.2729 11.3131 0.889906 0.00207438 -0.456139 188 90 87
-2.46511 2.4938 12.0982 0.733331 0.316045 -0.601948 203 77 61
-2.40168 2.52422 12.2094 0.743395 0.260531 -0.616026 14 6 3
-1.61237 2.37525 11.2132 -0.630059 -0.212024 -0.747042 227 190 61
-1.57438 2.3633 11.2038 -0.38032 -0.201518 -0.902633 233 199 62
-1.53808 2.36022 11.1937 -0.75287 -0.285985 -0.592789 237 204 64
-1.49777 2.36031 11.1873 -0.767655 -0.339756 -0.543389 238 206 62
-1.45957 2.36673 11.1387 0.0791915 0.369315 -0.925924 238 207 61
-1.35219 2.37157 11.0537 0.348569 0.497083 -0.794612 241 213 64
-1.28093 2.3346 11.0117 -0.504659 0.0182648 -0.863126 242 216 65
-1.21574 2.33303 10.9823 -0.0949804 -0.128214 -0.987188 246 220 69
-1.23495 2.36333 10.9622 -0.71566 -0.256986 -0.649452 245 219 68
-1.18465 2.32955 10.9502 -0.0180585 0.291759 -0.956321 247 221 69
-1.05811 2.34646 10.9506 -0.812154 0.0696518 -0.57927 248 223 69
-1.02154 2.36187 10.9294 0.626107 0.315736 -0.712952 245 219 64
-0.909695 2.38355 10.9348 0.763223 -0.159355 -0.626176 245 219 66
-0.535921 2.41034 10.8993 0.523528 -0.483493 -0.701537 248 225 74
-0.459924 2.45979 11.0073 0.654298 -0.524891 -0.544411 246 222 71
-0.226462 2.47302 11.0266 0.583506 0.288069 -0.7593 241 219 75
-0.0253506 2.53477 11.1415 0.703927 -0.098631 -0.703391 235 214 77
-3.65693 2.06974 10.9061 0.780941 0.360589 -0.510006 214 213 234
-3.65639 2.06864 10.9012 0.79794 0.333502 -0.502063 214 213 234
-3.59382 2.08365 10.9108 -0.475235 -0.697766 -0.535979 231 231 244
-3.50357 2.08825 10.8705 -0.196878 -0.240639 -0.950438 235 232 244
-3.46479 2.08781 10.8634 -0.127135 -0.304619 -0.943951 240 208 218
-3.40565 2.11686 10.8508 0.224727 -0.367611 -0.902419 220 76 85
-3.36772 2.11635 10.8647 0.373209 -0.307509 -0.875302 231 165 174
-3.33627 2.11718 10.879 0.556632 -0.156606 -0.815865 238 225 236
-3.32864 2.11759 10.8821 0.373765 -0.330217 -0.86675 239 228 239
-3.29777 2.11763 10.8972 0.553929 -0.332262 -0.76339 239 235 242
-3.2573 2.10837 10.8644 0.640968 -0.489519 -0.591211 241 237 244
-3.06398 2.10198 10.7732 0.910751 -0.223245 -0.347412 213 212 229
-3.08329 2.14413 10.7959 0.789719 -0.496953 -0.359698 216 216 235
-3.0159 2.13757 10.7673 0.88563 -0.120813 -0.448401 209 209 228
-2.98212 2.14701 10.8135 0.916527 -0.145664 -0.372506 209 210 230
-2.9221 2.15196 10.7863 0.532196 0.5643 -0.631137 205 206 230
-2.8864 2.15926 10.8337 0.633634 0.477035 -0.609053 205 206 229
-2.84355 2.16107 10.8658 0.710281 0.386039 -0.58862 213 213 237
-2.81281 2.17539 10.8894 0.820312 0.279839 -0.498778 208 209 233
-2.78392 2.2089 10.9069 0.738859 0.267276 -0.618588 208 210 236
-2.75231 2.21369 10.9117 0.516665 0.175748 -0.837956 213 215 240
-2.72693 2.22051 11.0126 0.80496 0.207999 -0.555675 207 207 232
-2.7076 2.21139 10.9954 0.828034 0.251282 -0.501217 204 204 227
-2.64532 2.23747 11.0809 0.897596 -0.179413 -0.402656 210 205 227
-2.647 2.24233 11.1014 0.867735 0.138204 -0.477427 210 205 227
-2.59924 2.28792 11.222 0.849099 -0.272911 -0.452274 201 193 212
-2.55475 2.27482 11.2014 0.726649 0.229544 -0.647526 207 195 216
-2.37355 2.56582 12.2382 0.731394 0.246708 -0.635766 11 7 5
-2.35062 2.61707 12.3085 0.697976 0.106179 -0.708206 9 4 2
-1.70869 2.43548 11.4028 -0.746381 -0.0389606 -0.664377 213 171 57
-1.6477 2.40304 11.2766 -0.543613 0.0918347 -0.834297 222 183 60
-1.67147 2.44742 11.3599 -0.554276 0.116602 -0.824125 220 179 59
-1.55905 2.39717 11.1824 0.223224 -0.264235 -0.93827 234 201 63
-1.5197 2.39506 11.1839 -0.159737 -0.271172 -0.949184 236 204 63
-1.44515 2.39092 11.0981 0.161136 0.46388 -0.87112 237 207 61
-1.39186 2.38399 11.0807 0.415604 0.273464 -0.867462 241 212 64
-1.37654 2.42184 11.0833 -0.0222226 0.0345643 -0.999155 240 212 63
-1.3361 2.41822 11.0683 0.170466 0.244705 -0.954495 241 213 64
-1.30866 2.37172 11.0038 0.240919 0.348503 -0.905817 242 215 66
-1.09281 2.41352 10.9711 0.673084 0.33318 -0.660264 241 214 65
-1.00759 2.40285 10.9392 0.603146 0.344882 -0.719215 245 220 67
-0.888516 2.40758 10.9253 0.418596 0.488266 -0.765751 245 219 67
-0.486046 2.48899 10.9859 0.709517 -0.381846 -0.592266 245 221 70
-0.417271 2.51335 11.0173 0.656121 -0.519534 -0.547348 245 221 75
-0.343647 2.49075 11.0218 0.682176 -0.444321 -0.580702 243 221 75
-0.321093 2.52288 10.9928 0.479286 -0.173954 -0.860247 241 219 79
-0.296082 2.4961 10.9855 0.608231 0.251731 -0.752786 240 219 76
-0.310468 2.52654 11.0319 0.693621 -0.404735 -0.595885 240 218 78
-0.254487 2.53588 11.0406 0.584547 0.286165 -0.75922 241 221 81
-0.00493775 2.60728 11.1735 0.705142 -0.127811 -0.697452 235 217 83
-0.00310191 2.58878 11.1789 0.750686 -0.124513 -0.64882 234 214 79
0.0112771 2.56205 11.1384 0.690891 -0.0203212 -0.722673 232 212 79
0.0673238 2.61798 11.295 0.702197 -0.112934 -0.702969 229 211 80
-3.48346 2.11845 10.8469 0.0843416 -0.281589 -0.955821 233 230 243
-3.44452 2.1181 10.8464 0.0241337 -0.325998 -0.945062 236 196 206
-3.46319 2.14869 10.8298 0.0486742 -0.360949 -0.931315 235 230 244
-3.422 2.14956 10.8358 0.108456 -0.356944 -0.927808 216 154 168
-3.38049 2.15146 10.8424 0.213354 -0.381741 -0.899308 236 204 213
-3.38231 2.14961 10.8437 0.226522 -0.379965 -0.896836 235 197 207
-3.34294 2.15065 10.8595 0.445742 -0.362716 -0.818383 236 228 238
-3.30471 2.14559 10.8546 0.498278 -0.359137 -0.789138 237 235 243
-3.27142 2.14383 10.8463 0.659012 -0.417184 -0.625828 237 237 244
-3.14693 2.15288 10.7658 0.857652 -0.339106 -0.386574 220 222 239
-3.08182 2.14443 10.7772 0.635745 -0.702942 -0.318905 216 216 235
-2.99078 2.18159 10.7789 0.661648 -0.425523 -0.617375 218 221 241
-2.91649 2.19278 10.7884 0.508491 0.558368 -0.655486 199 197 220
-2.8689 2.19573 10.8378 0.462004 0.307429 -0.831889 207 205 230
-2.82279 2.19818 10.8692 0.653015 0.375118 -0.65792 206 206 231
-2.80441 2.23935 10.8834 0.142868 0.238698 -0.960527 194 186 213
-2.76025 2.239 10.8885 0.193133 0.317818 -0.928273 211 212 239
-2.77594 2.24352 10.8954 0.144933 0.18313 -0.972347 208 207 235
-2.73439 2.25308 10.926 0.493963 0.133191 -0.859221 215 216 242
-2.66968 2.27945 11.012 0.867573 -0.0993623 -0.487282 200 199 223
-2.64502 2.30114 11.0603 0.469446 0.588388 -0.658347 203 193 219
-2.61231 2.34808 11.2625 0.758839 -0.442853 -0.47754 196 181 202
-2.57057 2.34735 11.2499 0.817434 -0.282841 -0.501799 192 170 190
-2.52787 2.34861 11.3021 0.874737 -0.0588514 -0.481011 196 129 136
-2.47779 2.59997 12.0788 0.813518 0.143098 -0.56366 199 63 46
-2.43317 2.60675 12.1143 0.659234 0.362626 -0.65872 180 70 59
-2.38412 2.61274 12.1557 0.732396 0.240059 -0.637156 22 7 6
-1.66468 2.48681 11.3278 -0.803464 -0.110676 -0.584975 224 185 60
-1.63845 2.45309 11.2897 -0.495974 0.336091 -0.800658 225 187 60
-1.56555 2.44981 11.236 -0.0137248 0.214577 -0.976611 233 200 62
-1.5478 2.48064 11.2133 -0.757802 -0.0604148 -0.649682 234 202 63
-1.47471 2.44485 11.159 0.201144 0.488978 -0.848788 237 206 62
-1.41581 2.42803 11.1083 0.0827269 -0.0613106 -0.994685 238 208 61
-1.35844 2.45256 11.0612 0.053925 0.250738 -0.966552 240 212 63
-1.32133 2.44541 11.0349 0.334313 0.247256 -0.90945 241 213 64
-1.25949 2.42455 11.0165 -0.496493 0.0211709 -0.867782 243 217 67
-1.08004 2.44223 10.9347 0.750207 -0.477205 -0.457673 238 211 65
-1.00276 2.43932 10.9226 0.517958 0.392588 -0.759996 245 221 71
-0.889144 2.43444 10.8809 0.572471 0.277853 -0.771411 246 222 69
-0.788705 2.46594 10.9065 0.217259 0.286061 -0.933257 248 221 66
-0.4543 2.5334 10.9582 0.670209 -0.493381 -0.554432 245 221 74
-0.474054 2.53829 10.9869 0.622079 -0.589886 -0.514832 246 223 73
-0.399166 2.54369 10.948 -0.321348 -0.0931457 -0.942369 242 220 77
-0.402742 2.54333 10.9881 -0.197441 -0.372578 -0.906754 245 224 80
-0.350488 2.55418 10.9728 0.000686899 0.180704 -0.983537 238 217 79
-0.292831 2.56767 11.022 0.665554 0.0636988 -0.743627 240 220 83
-0.268434 2.56374 11.0536 0.630795 -0.154576 -0.760397 240 219 80
-0.217387 2.55557 10.988 -0.0685323 0.700716 -0.710141 240 221 84
-0.160999 2.58301 11.0999 0.567179 0.377943 -0.731756 236 216 75
-0.0387191 2.61108 11.1227 0.0106509 0.180993 -0.983427 236 218 82
0.0194545 2.63834 11.1866 0.704268 -0.129007 -0.698114 233 215 86
-3.48321 2.18327 10.8297 -0.370769 -0.516755 -0.771683 231 232 245
-3.39026 2.18279 10.8305 0.747177 -0.483173 -0.456367 234 223 234
-3.35522 2.18431 10.8342 0.729257 -0.449529 -0.515857 233 228 239
-3.31779 2.18562 10.86 0.796405 -0.340308 -0.499931 234 233 243
-3.27791 2.17816 10.8029 0.831979 -0.425983 -0.355457 221 219 235
-3.27919 2.18251 10.8211 0.864944 -0.33326 -0.375246 221 220 235
-3.12336 2.18095 10.7385 0.456037 -0.205709 -0.86586 230 233 245
-3.04401 2.1901 10.7587 0.92065 -0.0671 -0.38458 203 204 226
-3.00875 2.21381 10.7653 0.155062 -0.1193 -0.980675 215 218 239
-2.93875 2.24272 10.7983 0.370827 -0.0619693 -0.926632 135 113 128
-2.89754 2.23368 10.8317 0.599693 0.266409 -0.754583 136 112 127
-2.85234 2.23682 10.8637 0.375533 0.388421 -0.841489 141 121 138
-2.83146 2.27762 10.8895 0.170194 0.393711 -0.903341 114 78 88
-2.79571 2.27947 10.9033 0.170678 0.196215 -0.965592 155 133 156
-2.75058 2.28036 10.897 -0.184542 0.291971 -0.938455 205 205 233
-2.71048 2.29429 10.9447 0.42716 0.240653 -0.871562 214 212 240
-2.62215 2.37686 11.2312 0.859725 -0.207067 -0.4669 190 169 195
-2.58317 2.38458 11.2499 0.749507 -0.380602 -0.541646 207 156 181
-2.53733 2.39883 11.2989 0.755287 -0.444748 -0.481396 204 74 78
-2.50218 2.42265 11.3872 0.892136 -0.047004 -0.449316 196 50 39
-2.50218 2.42265 11.3872 0.892136 -0.047004 -0.449316 196 50 39
-2.4095 2.6567 12.1543 0.34908 0.125373 -0.928668 118 47 40
-2.36331 2.65333 12.1589 0.406643 0.136978 -0.90326 35 13 12
-2.0127 2.76775 12.4591 0.190746 0.27423 -0.942557 40 29 15
-1.63959 2.51995 11.2916 -0.546007 0.0446178 -0.836591 228 191 59
-1.5861 2.49247 11.2588 -0.640735 0.209112 -0.738736 232 197 62
-1.51878 2.51154 11.1865 -0.532232 -0.0795481 -0.842853 235 203 63
-1.48257 2.49424 11.1665 -0.809339 -0.236772 -0.537503 237 206 63
-1.42467 2.50542 11.1258 -0.750577 -0.380448 -0.540272 238 207 61
-1.38337 2.48644 11.0499 0.109252 0.225149 -0.96818 239 209 61
-1.26509 2.47229 11.0051 -0.729098 -0.0698748 -0.680833 242 216 68
-1.19556 2.47444 10.9098 -0.0575809 0.523503 -0.850076 238 214 75
-1.14776 2.44298 10.8609 -0.229753 0.659351 -0.71587 241 217 77
-1.09862 2.46972 10.9014 0.0471929 0.691187 -0.721133 231 208 76
-1.06022 2.47836 10.935 0.0156509 -0.257602 -0.966124 239 218 81
-1.02055 2.47719 10.9295 -0.0258099 -0.245792 -0.968979 245 223 81
-0.98187 2.47461 10.9188 0.360242 0.136223 -0.922859 249 226 82
-0.997287 2.51617 10.939 -0.187199 -0.247777 -0.950559 230 211 82
-0.956874 2.5176 10.9365 -0.0280822 -0.380001 -0.92456 244 223 80
-0.91875 2.51367 10.9208 -0.392139 -0.44464 -0.805309 247 223 76
-0.842657 2.54173 10.9774 0.435922 0.500678 -0.747859 246 219 66
-0.784417 2.53257 10.9832 0.398192 0.527902 -0.750176 247 220 66
-0.812404 2.51275 10.9366 0.397444 0.529683 -0.749316 247 220 66
-0.471577 2.5704 10.96 -0.00148795 -0.328969 -0.94434 246 224 79
-0.432373 2.56871 10.9515 -0.0563106 -0.319508 -0.945909 243 223 81
-0.372835 2.58836 10.97 0.502888 0.34283 -0.793455 193 175 70
-0.319137 2.60255 11.0149 0.491767 -0.0211291 -0.87047 174 153 62
-0.281627 2.60991 11.0531 0.474481 -0.177817 -0.862119 208 190 79
-0.234927 2.61288 11.0628 0.00502125 0.136792 -0.990587 232 214 82
-0.189843 2.61298 11.0634 0.18887 0.225336 -0.955799 237 218 81
-0.169109 2.65367 11.0805 0.325307 0.120295 -0.937926 239 220 84
-0.139736 2.62135 11.1036 0.465211 0.47915 -0.744308 236 216 77
-0.104602 2.63816 11.1224 0.60475 0.320832 -0.728934 237 217 76
-0.0620455 2.66774 11.1664 0.35928 0.188046 -0.914088 237 219 80
-0.0198659 2.64861 11.1158 0.294632 0.329621 -0.896963 237 220 86
-3.52024 2.21326 10.8448 -0.503643 -0.676357 -0.53748 220 223 240
-3.3968 2.22212 10.8052 0.739011 -0.505754 -0.445058 231 227 238
-3.36167 2.22188 10.8035 0.738471 -0.503293 -0.448728 227 226 238
-3.3267 2.2199 10.7938 0.75999 -0.510334 -0.402461 221 222 235
-3.10346 2.2212 10.7612 -0.0826153 0.127727 -0.988363 222 224 242
-3.05205 2.21329 10.725 -0.0712569 0.476239 -0.876424 219 222 241
-3.07674 2.25404 10.7531 -0.467696 0.218098 -0.856559 223 227 244
-3.02758 2.25118 10.7656 0.00392408 -0.223849 -0.974616 216 218 239
-3.04123 2.25826 10.7566 -0.334079 -0.192762 -0.922624 219 222 242
-2.98917 2.25101 10.7775 0.30736 -0.168696 -0.936521 194 186 206
-2.98589 2.27169 10.7732 0.522518 0.031397 -0.85205 155 138 153
-2.94911 2.24904 10.7914 0.488206 0.0900358 -0.868072 134 112 125
-2.92026 2.27787 10.8251 0.585282 0.0592317 -0.808663 58 27 29
-2.8783 2.2727 10.8603 0.554166 0.2839 -0.782497 72 35 39
-2.8107 2.3193 10.9172 0.227443 0.114488 -0.967038 117 78 86
-2.77031 2.31768 10.9089 -0.203525 0.297023 -0.932928 165 153 181
