ply
format ascii 1.0
comment VCGLIB generated
element vertex 1192
property float x
property float y
property float z
property uchar red
property uchar green
property uchar blue
property uchar alpha
element face 0
property list uchar int vertex_indices
end_header
-3.92967 7.76945 11.8788 66 46 32 255 
-0.912104 7.81284 12.6926 171 142 118 255 
-0.929809 7.80619 12.6879 173 145 122 255 
-1.13739 3.42737 5.68535 220 219 201 255 
-1.12888 3.445 5.68313 234 238 223 255 
-1.84875 4.96726 11.7191 157 97 44 255 
-1.84592 4.97589 11.7366 149 94 42 255 
-4.64943 7.59206 11.8813 68 52 42 255 
-1.0458 4.81623 11.2006 230 214 92 255 
-1.05142 4.82409 11.2179 230 214 92 255 
-3.9744 2.48248 10.7485 229 48 50 255 
-3.98563 2.48672 10.7644 229 48 50 255 
-1.13312 6.67673 12.3176 164 131 102 255 
-1.12727 6.69522 12.3129 165 133 105 255 
-3.11658 4.75402 11.1478 196 132 54 255 
-3.11699 4.77379 11.1511 202 137 62 255 
-1.69537 6.92034 12.6319 113 81 52 255 
-1.68678 6.91063 12.6472 114 82 52 255 
-1.92976 3.31453 11.496 221 176 69 255 
-1.92654 3.31464 11.4761 221 177 70 255 
-4.86946 7.0832 13.7865 102 86 71 255 
-4.16785 3.06058 10.8821 133 117 127 255 
-4.15875 3.04529 10.8918 193 179 194 255 
-2.85169 3.80104 11.1462 210 45 37 255 
-2.8573 3.81417 11.1606 196 40 30 255 
-3.31837 2.72373 10.7345 207 29 29 255 
-3.32994 2.70835 10.7281 209 29 29 255 
-2.08871 3.97576 11.6651 211 157 60 255 
-2.09641 3.95902 11.6737 216 158 60 255 
-1.62985 3.23985 5.35253 62 64 66 255 
-1.63782 3.25016 5.3682 78 79 80 255 
-1.96805 3.45541 11.4504 229 181 67 255 
-1.97073 3.44543 11.4328 228 180 66 255 
-3.01299 7.61703 12.7872 77 54 32 255 
-3.02365 7.62506 12.7717 73 50 29 255 
-1.12629 6.57325 12.2217 163 128 99 255 
-1.66959 3.25057 11.3105 234 201 67 255 
-1.67909 3.26508 11.3217 235 201 67 255 
-0.179769 7.50208 13.2204 83 65 58 255 
-0.172087 7.49881 13.2015 94 74 70 255 
-3.02847 7.07786 12.6378 82 55 29 255 
-3.02073 7.06006 12.6306 83 56 30 255 
-0.733525 6.88196 12.4705 176 147 127 255 
-0.728375 6.8725 12.4528 176 147 126 255 
-1.67907 8.00613 11.6762 75 54 47 255 
0.231682 3.46985 11.7447 217 208 107 255 
0.224875 3.48569 11.7331 218 208 107 255 
-3.41155 2.4299 10.7244 212 47 47 255 
-3.43066 2.42482 10.7313 206 40 39 255 
0.245285 3.45416 11.7419 217 209 111 255 
-1.41764 7.88886 12.322 84 62 54 255 
-1.41996 7.89823 12.3406 84 62 54 255 
-1.56166 7.76875 12.6602 106 78 64 255 
-1.5807 7.7671 12.6515 103 76 64 255 
-0.94816 3.53091 5.80968 238 241 226 255 
-0.927688 3.52797 5.81343 238 237 221 255 
-2.00851 3.28151 5.42121 219 222 196 255 
-1.98894 3.28622 5.42743 221 223 198 255 
-1.7956 7.16254 12.9789 92 63 38 255 
-3.35336 2.49445 10.7853 220 54 55 255 
-4.05447 7.79072 11.7736 63 44 31 255 
-4.06004 7.80771 11.7849 62 42 29 255 
-2.52142 3.07173 11.5484 219 54 43 255 
-2.5655 3.09361 11.4396 218 47 38 255 
-2.57074 3.11347 11.4341 218 46 37 255 
-1.44435 6.5459 12.3505 142 106 73 255 
-1.44622 6.55832 12.3677 142 106 73 255 
-4.39478 4.5704 11.0283 218 102 44 255 
-4.40881 4.58343 11.0189 174 56 27 255 
-1.61615 3.27893 5.38697 39 42 47 255 
-2.96332 7.44093 13.2001 79 55 32 255 
-2.05294 4.42612 11.7373 190 140 57 255 
-2.06326 4.41485 11.722 189 136 55 255 
-2.28471 7.85324 11.9999 99 82 67 255 
-2.30474 7.84696 11.9947 100 84 69 255 
-1.86973 3.77491 11.4564 237 202 72 255 
-1.88114 3.79308 11.4598 234 198 72 255 
-0.9537 3.96985 5.91761 22 21 30 255 
-0.947346 3.95357 5.93065 23 22 32 255 
-3.38282 7.7582 11.922 57 39 27 255 
-0.700882 6.18253 12.2813 170 138 112 255 
-0.705763 6.19601 12.2647 170 138 112 255 
-1.6412 3.34315 5.49925 201 202 189 255 
-1.48567 2.73754 11.0999 244 214 64 255 
-1.48344 2.74448 11.1206 242 212 63 255 
-3.25975 4.61985 10.9058 224 153 64 255 
-3.62748 5.99395 11.8527 93 65 35 255 
-3.62447 6.00135 11.8732 95 67 36 255 
-1.24949 3.80872 11.066 248 224 74 255 
-1.24339 3.81714 11.0854 249 224 74 255 
-0.580332 7.08483 12.5043 157 127 98 255 
-0.577896 7.0631 12.5069 158 126 97 255 
-2.19575 7.40585 14.9635 66 51 38 255 
-1.87191 7.5891 13.2958 76 51 31 255 
-1.53329 2.61965 11.1953 239 207 65 255 
-1.54843 2.62574 11.2104 238 206 64 255 
-2.61802 6.74729 13.5361 98 79 68 255 
-2.6202 6.75521 13.557 98 79 68 255 
-3.82313 3.52845 10.6767 206 40 34 255 
-3.83282 3.54085 10.6929 213 42 37 255 
-0.58984 4.3113 11.205 243 225 91 255 
-0.610868 4.31951 11.2037 246 229 98 255 
-3.87989 3.66605 10.4949 203 46 38 255 
-1.40955 3.4475 5.61636 64 66 65 255 
-1.7486 5.73082 12.6694 84 54 32 255 
-1.74514 5.74736 12.6845 81 53 30 255 
-0.971888 3.60085 5.79756 28 31 39 255 
-0.983128 3.59414 5.81607 50 52 58 255 
-3.54729 3.36951 10.7037 69 43 50 255 
-3.56986 3.36733 10.7028 67 40 47 255 
-4.48275 7.66575 12.034 60 43 33 255 
-4.48973 7.66987 12.0552 61 44 33 255 
-1.68914 6.44924 12.6645 107 75 46 255 
-1.68998 6.46255 12.6829 106 74 45 255 
-1.70075 8.00243 11.7073 68 49 41 255 
-1.68788 8.01667 11.7196 72 52 44 255 
-1.51884 4.67769 11.3002 238 219 104 255 
-1.51185 4.67842 11.3219 235 216 100 255 
-2.04506 4.02032 11.629 214 167 66 255 
-2.04449 3.99836 11.6353 213 166 64 255 
-2.67416 7.82838 11.712 69 51 38 255 
-2.67316 7.81425 11.694 64 46 34 255 
-3.79034 2.43549 10.7052 227 79 106 255 
-3.78858 2.42698 10.684 227 88 117 255 
-3.33619 6.69496 12.1761 80 55 27 255 
-3.31566 6.68517 12.179 87 59 30 255 
-1.77691 5.79896 12.7044 79 51 30 255 
-1.78533 5.81922 12.7111 78 51 29 255 
-3.94641 5.3819 11.3812 107 70 43 255 
-2.75845 2.45524 10.9699 221 205 242 255 
-2.77224 2.47346 10.9674 219 196 236 255 
-0.649521 3.11169 10.9386 243 222 73 255 
-1.36478 3.54491 5.74788 77 79 82 255 
-1.34859 3.54999 5.73235 45 47 50 255 
-0.699001 3.91483 5.976 12 14 21 255 
-2.04236 3.25675 5.45683 76 62 47 255 
-2.02184 3.25486 5.46717 64 50 37 255 
-1.55776 6.52739 12.5057 129 95 62 255 
-1.57544 6.52146 12.4921 127 92 60 255 
-0.984789 3.97779 5.91881 21 21 29 255 
-0.969515 3.99378 5.91213 17 17 24 255 
-3.30755 7.21871 12.3076 92 64 35 255 
-3.30635 7.20575 12.2885 82 57 29 255 
-1.05051 6.08212 12.1418 165 131 101 255 
-1.03132 6.086 12.1541 167 133 103 255 
-1.68324 3.23619 5.3451 68 71 72 255 
-2.75126 7.8206 11.7457 57 39 28 255 
-2.7652 7.80509 11.7558 54 36 25 255 
-3.76441 3.38399 10.685 184 46 44 255 
-3.76262 3.40644 10.679 189 39 32 255 
-1.23953 3.39146 5.65086 140 130 113 255 
-1.22489 3.40886 5.64567 231 234 216 255 
-0.931894 7.77077 11.8489 79 59 50 255 
-0.933734 7.783 11.8687 80 59 50 255 
-3.04454 2.51246 10.7066 230 54 71 255 
-3.05329 2.5171 10.7278 230 56 73 255 
-4.03287 5.79848 11.9059 96 67 38 255 
-4.05094 5.79197 11.8925 113 80 49 255 
-0.53983 3.75972 5.98872 135 126 121 255 
-0.547693 3.77828 5.97671 30 30 35 255 
-2.06119 7.37618 14.0933 49 36 27 255 
-1.90882 7.47355 13.5286 44 27 15 255 
-1.91296 7.45569 13.5139 41 26 14 255 
-1.10296 3.44853 5.69816 236 239 223 255 
-1.0873 3.46405 5.68991 175 177 170 255 
-2.0279 3.27297 5.4109 220 222 196 255 
-4.11613 7.86084 11.0741 60 42 32 255 
-4.12407 7.86158 11.0963 59 40 31 255 
-2.03068 4.49703 11.6733 186 136 58 255 
-2.03305 4.50385 11.6958 183 133 57 255 
-2.67526 4.66383 11.4834 86 34 25 255 
-2.68924 4.68258 11.4868 98 36 28 255 
-3.00366 2.58385 10.7443 226 39 43 255 
-3.01223 2.58882 10.7658 221 37 41 255 
-2.086 3.22847 5.36496 201 200 176 255 
-2.10348 3.21576 5.37467 75 64 48 255 
-0.929952 3.48263 5.82743 75 55 45 255 
-0.917276 3.49955 5.81667 120 105 91 255 
-0.720477 4.06688 5.95408 26 21 31 255 
-2.12183 4.11982 11.8516 200 138 51 255 
-2.82719 3.10108 11.1006 220 209 229 255 
-2.83078 3.09112 11.0793 223 211 233 255 
-2.59294 6.72753 13.6578 89 71 59 255 
-2.59451 6.73611 13.6801 89 70 59 255 
-1.43222 7.73688 12.5889 136 105 84 255 
-1.42068 7.71722 12.5963 150 118 92 255 
-1.38983 3.3333 5.61379 71 54 41 255 
-1.40138 3.34164 5.59451 76 61 45 255 
-0.541785 3.72886 6.06134 80 61 50 255 
-0.562388 3.74037 6.06561 85 67 57 255 
-1.64631 3.30657 5.54845 58 40 28 255 
-1.66746 3.30959 5.53754 58 41 27 255 
-1.62969 3.07793 11.2348 237 204 64 255 
-1.64757 3.07138 11.2494 235 202 63 255 
-3.9287 5.34759 11.3764 116 56 38 255 
-1.73139 4.45422 11.3507 232 205 77 255 
-2.2153 3.87579 12.408 171 115 52 255 
-2.2187 3.89132 12.3899 172 114 52 255 
-1.33579 3.32677 11.0565 243 219 80 255 
-1.31773 3.32384 11.0722 243 218 79 255 
-1.9352 3.47 5.72269 55 41 27 255 
-1.92003 3.48566 5.71224 105 93 73 255 
-4.37222 7.52814 12.594 102 72 42 255 
-4.37231 7.55098 12.586 101 73 43 255 
-1.98436 3.26306 5.43277 115 105 84 255 
-1.62873 3.33058 5.54167 122 113 95 255 
-1.60883 3.33022 5.55547 70 56 40 255 
-3.25606 6.1132 11.968 100 70 40 255 
-3.23444 6.12189 11.9748 92 64 35 255 
-0.882734 3.37654 10.9702 155 135 66 255 
-0.863818 3.3903 10.9768 82 58 33 255 
-3.63152 6.24812 11.9795 96 68 38 255 
-3.63836 6.26776 11.9921 95 67 37 255 
-1.36612 3.34792 5.59776 87 74 59 255 
-1.36635 3.36826 5.6111 131 123 106 255 
-1.28656 3.36796 5.63589 83 67 52 255 
-1.27065 3.38601 5.6323 187 182 165 255 
-1.25716 3.40586 5.62829 234 237 221 255 
-0.556768 4.06854 5.98802 12 12 19 255 
-0.573164 4.08207 5.97617 5 7 13 255 
-1.21635 3.39204 5.66111 103 91 74 255 
-4.38806 7.4577 12.5986 102 70 41 255 
-4.38862 7.44081 12.581 101 70 41 255 
-0.712067 3.93166 5.95519 15 16 21 255 
-0.963965 3.46965 5.81142 75 56 45 255 
-0.551763 3.74615 6.00519 145 136 130 255 
-0.572436 3.73161 6.01139 167 159 152 255 
-3.5768 3.69815 10.7205 232 49 46 255 
-3.56015 3.71297 10.7308 229 47 44 255 
-0.510246 3.92735 6.00218 27 22 22 255 
-0.512882 3.9035 5.99685 26 21 21 255 
-4.70872 7.52516 11.7259 72 55 45 255 
-1.73723 3.31986 5.46302 198 199 185 255 
-1.73133 3.3039 5.44521 201 202 188 255 
-0.724433 3.91438 5.96769 11 13 19 255 
-2.3226 2.8473 12.0907 21 14 9 255 
-2.3444 2.85395 12.1001 19 12 10 255 
-3.72252 2.39221 10.6585 223 161 207 255 
-3.71451 2.40699 10.6766 225 133 176 255 
-1.35156 3.32862 5.60287 69 53 40 255 
-4.76199 6.75506 13.4278 103 86 68 255 
-4.76384 6.75785 13.4033 103 87 69 255 
-0.961227 3.58262 5.81608 51 53 57 255 
-3.20092 7.66916 12.3238 59 39 26 255 
-3.20426 7.68784 12.3397 58 38 26 255 
-5.03691 7.61975 12.7685 92 75 61 255 
-5.05156 7.63972 12.77 118 99 89 255 
-1.27815 6.37541 12.2246 153 118 86 255 
-1.25753 6.38654 12.2329 155 119 88 255 
-2.07895 3.24279 5.41844 63 52 36 255 
-3.77757 7.79951 11.5063 67 47 35 255 
-3.79072 7.8072 11.5261 65 45 32 255 
-1.20431 3.41775 5.66323 227 228 210 255 
-1.18064 3.41469 5.67062 207 206 187 255 
-3.51943 3.80759 10.688 221 49 44 255 
-3.54245 3.79815 10.6904 220 49 45 255 
-1.31689 3.36767 5.63019 80 66 50 255 
-1.96324 3.27605 5.45832 82 69 52 255 
-1.94378 3.28298 5.47249 68 54 40 255 
-3.37466 4.71297 10.9138 199 127 45 255 
-3.37085 4.70219 10.8915 205 133 49 255 
-3.17469 2.81 10.7956 203 32 30 255 
-0.919188 3.00181 10.9335 250 226 74 255 
-2.08359 7.43175 14.1892 51 38 29 255 
-2.09195 7.41678 14.1708 51 39 29 255 
-2.69879 4.6619 11.4663 112 39 30 255 
-2.70162 4.6705 11.4428 103 37 28 255 
-3.77474 2.47082 10.7152 235 48 52 255 
-3.77713 2.47075 10.6901 252 53 59 255 
-1.19184 3.38747 5.66499 86 72 56 255 
-0.763476 3.95685 5.94532 20 19 23 255 
-0.788318 3.95444 5.94151 19 18 23 255 
-0.903469 3.52087 5.81476 231 228 211 255 
-1.1915 3.44321 5.66446 219 221 211 255 
-1.21577 3.44891 5.66022 178 181 174 255 
-2.06497 3.22321 5.42973 61 47 34 255 
-1.68696 3.32964 5.49747 227 230 207 255 
-3.67327 7.76849 11.8517 62 42 29 255 
-3.65661 7.77815 11.8681 63 44 31 255 
-1.00342 8.44327 12.0471 95 73 63 255 
-4.82082 3.36966 11.8434 189 70 58 255 
-4.82293 3.35302 11.8244 184 71 61 255 
-3.63677 5.34375 11.4639 92 20 14 255 
-3.61747 5.36022 11.4654 98 25 18 255 
-1.34156 3.3664 5.61855 96 83 68 255 
-1.32751 3.38761 5.61845 218 219 198 255 
-2.84295 3.94397 11.1293 244 162 83 255 
-2.83869 3.94702 11.1044 245 174 85 255 
-0.904882 3.47841 5.82862 76 55 45 255 
0.135201 3.79659 11.6201 224 214 109 255 
0.136791 3.80435 11.6443 224 214 109 255 
-1.16844 3.3824 5.67375 75 57 43 255 
-3.20227 7.53219 12.5509 79 53 26 255 
-3.22405 7.53769 12.5388 80 54 27 255 
-0.606163 4.41158 11.2868 247 228 91 255 
-0.61099 4.4011 11.264 247 228 91 255 
-1.54911 4.24219 11.1638 246 223 81 255 
-2.38066 3.23747 12.184 18 4 3 255 
-2.36758 3.24416 12.205 7 3 2 255 
-3.68304 6.16677 11.95 111 80 47 255 
-3.70156 6.15823 11.9344 93 66 35 255 
-1.3181 3.41111 5.61409 219 222 211 255 
-0.971298 3.52299 5.80149 237 239 224 255 
-0.890745 3.50243 5.82766 102 85 72 255 
-0.592736 3.73165 5.98856 50 49 54 255 
-0.612455 3.74082 6.00255 19 21 31 255 
-3.21149 3.31612 10.8517 215 208 230 255 
-3.22618 3.2951 10.8552 209 203 223 255 
-0.71403 3.98603 5.95005 31 29 37 255 
-0.697731 3.96829 5.95956 22 21 30 255 
-4.93349 6.31716 12.47 118 104 91 255 
-4.92613 6.30138 12.4508 117 104 91 255 
-2.91329 3.09904 11.0052 222 213 234 255 
-2.90999 3.09807 11.0309 222 213 234 255 
-3.36645 6.39442 11.9813 87 59 31 255 
-3.36798 6.41851 11.9908 81 55 27 255 
-3.33675 6.51301 12.028 82 56 27 255 
-3.33145 6.49554 12.0095 78 53 26 255 
-0.592189 3.73776 6.08504 96 80 69 255 
-2.88713 3.47693 11.0031 219 42 37 255 
-2.86745 3.46725 11.0171 215 39 32 255 
-0.779108 3.98822 5.94205 18 17 22 255 
-0.764972 4.00968 5.94621 19 18 24 255 
-0.746091 3.98949 5.953 41 41 46 255 
-0.733183 4.01173 5.94887 21 20 26 255 
-1.72892 3.30511 5.48284 215 216 191 255 
-2.03519 4.35139 11.8308 204 155 61 255 
-2.03818 4.37485 11.8418 196 153 62 255 
-0.708436 5.87853 12.2428 157 124 98 255 
-0.697697 5.86999 12.265 156 123 97 255 
-3.3293 7.41123 12.3863 92 64 33 255 
-3.32559 7.40638 12.3609 94 65 35 255 
-1.68612 6.46609 12.6446 108 76 46 255 
-1.6894 4.88275 11.5247 187 138 66 255 
-1.46017 3.74603 11.1362 253 229 80 255 
-4.38093 7.74315 12.2248 65 46 34 255 
-4.40035 7.74307 12.2069 64 45 33 255 
-3.97988 5.29238 11.3733 137 42 34 255 
-1.04475 6.27906 12.1631 165 132 103 255 
-1.65187 6.76863 12.6103 119 85 55 255 
-1.63207 6.78282 12.6 122 88 58 255 
-2.35097 2.92741 12.1124 19 10 9 255 
-2.35333 2.9124 12.0907 21 11 10 255 
-0.548387 3.73581 6.03661 84 67 57 255 
-1.14579 3.39856 5.68464 82 66 50 255 
-1.11951 3.39484 5.68455 78 61 48 255 
-0.532603 3.9414 5.99929 12 14 20 255 
-0.494773 3.95337 5.99817 70 54 46 255 
-1.13189 2.94625 10.9122 247 222 71 255 
-1.55432 3.63601 11.2402 244 217 75 255 
-1.53679 3.65598 11.2384 246 220 78 255 
-0.829565 3.95183 5.93724 44 45 51 255 
-0.846985 3.96705 5.92395 25 25 33 255 
-1.62158 3.29794 5.54329 58 40 29 255 
-0.931471 3.97641 5.90434 22 20 28 255 
-4.84467 3.22214 11.8504 29 8 7 255 
-4.83126 3.24323 11.86 100 40 34 255 
-3.60698 7.75569 12.0776 70 49 35 255 
-3.5922 7.74575 12.0576 68 47 34 255 
-1.70444 3.32723 5.47731 209 210 195 255 
-1.51218 3.27785 5.40652 62 63 66 255 
-1.42638 8.03276 11.7557 92 70 62 255 
-4.48398 7.69882 12.6505 75 54 40 255 
-4.46278 7.68945 12.637 81 57 43 255 
-0.785105 3.66726 10.9978 84 58 34 255 
-0.773478 3.68833 11.0097 118 95 47 255 
-1.94992 3.27506 5.49741 57 43 28 255 
-1.59938 7.73686 12.7037 111 82 64 255 
-1.57902 7.72371 12.6921 124 93 71 255 
-1.59768 3.01897 11.1869 241 209 65 255 
-1.57728 3.01858 11.2044 242 211 65 255 
-1.65213 3.13522 11.25 235 201 65 255 
-1.66815 3.11867 11.2639 234 200 65 255 
-3.13182 3.25848 10.9071 66 49 61 255 
-3.14105 3.23379 10.9017 130 115 131 255 
-4.39091 7.97928 11.0948 54 36 28 255 
-4.39776 7.97774 11.1208 56 38 30 255 
-0.981168 3.48845 5.80268 98 85 71 255 
-1.86791 7.65489 13.029 86 62 48 255 
-1.86241 7.65745 13.0027 84 61 47 255 
-1.90238 3.93449 11.4686 236 199 67 255 
-1.63442 2.81887 11.2599 238 202 61 255 
-1.62768 2.79287 11.2566 237 202 61 255 
-2.97923 7.81548 11.6223 54 36 25 255 
-0.941025 3.90234 5.92291 11 14 20 255 
-0.914868 3.90935 5.92292 12 15 22 255 
-3.5458 2.98561 10.7807 90 36 32 255 
-3.52558 2.96967 10.7723 137 43 38 255 
-0.478212 3.97284 5.98916 79 59 47 255 
-4.28496 6.8178 12.342 101 70 37 255 
-4.28525 6.83518 12.3628 101 70 37 255 
-3.84092 2.60025 10.6907 199 45 44 255 
-1.322 3.54532 5.73488 50 52 55 255 
-2.79026 3.56915 11.0918 216 43 37 255 
-2.97172 3.00106 10.9475 103 38 35 255 
-2.95378 3.00848 10.9667 87 36 34 255 
-3.44973 4.26986 10.6653 255 184 73 255 
-3.42779 4.286 10.6674 254 183 73 255 
-4.73386 7.82596 10.9579 60 43 35 255 
-2.2477 7.60608 13.5957 93 73 67 255 
-2.2339 7.61346 13.6181 85 67 59 255 
-1.76634 7.97507 11.5492 81 61 52 255 
-1.75082 7.95274 11.5524 69 49 40 255 
-1.48754 3.26994 5.4155 127 128 126 255 
-1.14256 3.47878 5.68664 86 87 87 255 
-1.60324 3.33891 5.51051 228 230 211 255 
-0.316923 2.77805 11.0416 62 44 18 255 
-0.33592 2.79405 11.0299 55 36 23 255 
-1.71386 7.62119 12.9614 114 83 53 255 
-1.73881 7.61008 12.9584 109 78 50 255 
-0.559451 3.80216 5.98356 10 13 20 255 
-0.056151 4.17382 11.2396 231 218 100 255 
-0.0655209 4.14804 11.2375 233 220 100 255 
-0.663814 3.98093 5.96707 23 19 24 255 
-0.680411 4.00217 5.96146 20 16 25 255 
-1.72706 7.15184 12.7072 111 79 50 255 
-0.759035 4.03434 5.95835 46 46 55 255 
-0.77816 4.04738 5.94337 76 77 89 255 
-0.528816 5.9782 12.3397 156 124 97 255 
-0.551612 5.97002 12.3265 157 125 98 255 
-2.66938 3.44877 11.2594 221 54 46 255 
-2.653 3.42682 11.2556 225 57 49 255 
-1.07578 3.83161 11.0406 247 227 87 255 
-1.05609 3.84792 11.03 247 227 93 255 
-1.04915 4.72313 11.1421 234 217 89 255 
-1.02521 4.7148 11.1309 235 219 93 255 
-0.806813 6.75003 12.3684 173 145 126 255 
-0.609826 3.75499 5.97883 16 19 27 255 
-0.673595 7.22341 12.5338 169 138 111 255 
-0.690418 7.20838 12.5175 168 136 109 255 
-4.02646 2.43989 10.7666 226 63 78 255 
-3.91056 7.70999 12.2477 66 45 28 255 
-3.92856 7.72437 12.2319 64 44 29 255 
-1.71195 3.30905 5.50469 145 137 116 255 
-4.21533 3.31854 10.8588 221 46 42 255 
-4.21306 3.34244 10.8444 227 45 44 255 
-2.09432 7.60332 14.0371 58 43 35 255 
-2.07696 7.59613 14.058 53 39 31 255 
-1.16981 3.48433 5.68249 62 64 65 255 
-2.93142 3.93986 11.0594 237 137 69 255 
-2.91213 3.95815 11.0502 244 171 77 255 
-1.86788 3.12127 11.4443 221 175 63 255 
-1.88531 3.13169 11.4248 227 180 67 255 
-0.650935 3.9304 5.97837 10 12 17 255 
-0.648211 3.95694 5.96915 48 48 53 255 
-3.79712 5.01735 11.0337 146 28 22 255 
-3.79654 5.01403 11.0056 115 20 14 255 
-0.788061 3.27275 10.9733 234 217 97 255 
-5.57836 7.67264 12.5315 108 89 77 255 
-1.82973 7.61497 13.2291 85 57 35 255 
-0.900051 3.93309 5.91816 122 124 135 255 
-1.65916 4.86889 11.4795 198 158 79 255 
-3.50454 2.39221 10.7284 222 98 121 255 
-2.07232 7.63465 13.5487 77 58 51 255 
-2.0813 7.6402 13.5222 81 63 55 255 
-1.58292 4.38615 11.2438 251 229 91 255 
-1.58909 4.35963 11.2524 242 218 79 255 
-0.717535 7.89654 12.5628 89 67 58 255 
-0.730311 7.87893 12.5443 90 67 58 255 
-1.04586 7.34452 12.4477 167 136 108 255 
-1.03388 7.32882 12.427 168 136 109 255 
-0.931375 3.93127 5.91482 24 25 34 255 
-1.57576 7.77429 12.5561 104 78 69 255 
-1.54827 7.77026 12.563 106 80 70 255 
-2.87128 6.94183 13.0817 100 78 65 255 
-2.8752 6.96047 13.0603 99 78 63 255 
-0.573031 3.74643 5.97391 25 26 33 255 
-0.884855 3.9095 5.9246 13 15 22 255 
-2.92876 7.1127 13.1081 79 57 36 255 
-2.95267 7.12242 13.0953 74 51 28 255 
-3.48403 3.14908 10.4918 228 223 242 255 
-1.03857 3.50563 5.7769 235 237 220 255 
-0.592857 4.03623 5.96967 15 6 26 255 
-0.610691 4.01394 5.97381 46 20 58 255 
-3.95816 5.37521 11.4067 103 59 37 255 
-1.30198 2.79547 11.0219 241 212 61 255 
-1.27703 2.78938 11.0087 246 219 70 255 
-2.36494 7.56016 13.9205 97 78 70 255 
-2.35015 7.55792 13.8957 96 77 68 255 
-5.60575 6.36754 14.3838 46 46 40 255 
-5.60335 6.34805 14.3625 47 47 42 255 
-1.25662 3.36388 5.64484 80 63 48 255 
-2.34437 7.61456 13.5896 94 75 67 255 
-2.34491 7.60943 13.6182 92 73 66 255 
-5.32728 6.93588 13.2788 130 118 107 255 
-5.33119 6.95087 13.3034 130 118 107 255 
-2.04803 3.24211 5.39932 132 125 103 255 
-4.6397 7.61117 11.9254 67 50 41 255 
-4.66219 7.61445 11.9072 67 51 41 255 
-0.594107 3.77386 5.96317 12 14 23 255 
-1.55119 4.33412 11.237 247 224 82 255 
-1.75409 7.61241 12.9831 105 75 47 255 
-0.697051 4.02598 5.95889 22 22 25 255 
-4.20633 2.52855 10.8093 204 49 46 255 
-4.22691 2.54895 10.806 196 50 46 255 
-5.24076 6.57525 12.7989 133 121 110 255 
-5.21188 6.57133 12.7969 131 120 108 255 
-1.80169 6.29934 12.7166 76 52 30 255 
-1.80896 6.31326 12.7413 74 50 29 255 
-1.38533 5.95114 12.2723 146 109 77 255 
-1.41267 5.95872 12.2651 140 103 70 255 
-2.67013 4.64088 11.4256 88 33 25 255 
-2.66643 4.63282 11.4535 92 34 26 255 
-3.00782 7.802 11.2264 56 38 27 255 
-0.855448 3.90808 5.92466 10 12 18 255 
-1.76162 7.84672 11.3352 69 51 41 255 
-1.78352 7.866 11.3311 72 53 44 255 
-0.731989 3.95286 5.95051 130 132 138 255 
-2.92801 3.99086 10.9991 245 177 75 255 
-2.90935 3.99635 11.0213 246 177 77 255 
-4.69301 2.85664 11.8649 202 62 51 255 
-4.69978 2.84765 11.8376 202 66 55 255 
-1.71986 2.77545 11.3631 224 184 62 255 
-1.74179 2.75753 11.3545 222 181 63 255 
-1.7015 3.20829 5.32121 117 119 116 255 
-0.746758 3.43671 10.9923 121 100 48 255 
-0.76371 3.46104 10.9923 82 57 37 255 
-0.58687 3.90676 5.96971 10 13 20 255 
-0.570515 3.93149 5.96859 8 10 16 255 
-0.191288 2.89157 11.0452 241 222 79 255 
-0.209498 2.91496 11.0436 240 220 72 255 
-3.97639 3.61229 10.7164 221 47 43 255 
-3.98464 3.59578 10.7397 235 52 50 255 
-4.54911 3.0683 11.1793 211 58 48 255 
-4.57322 3.07907 11.1656 219 60 52 255 
-0.534309 3.75772 6.05103 81 64 53 255 
-4.56467 7.78673 11.6032 66 48 36 255 
-4.58153 7.80274 11.6218 63 45 33 255 
-1.44224 6.71393 12.4281 142 107 75 255 
-1.44596 6.69945 12.4023 151 115 84 255 
-0.794678 4.01364 5.94037 19 20 27 255 
-1.08079 3.50257 5.71059 55 57 57 255 
-1.10699 3.51627 5.71521 50 52 56 255 
-1.52647 7.76925 12.6354 107 79 64 255 
-1.51039 7.75649 12.6136 107 79 63 255 
-0.442054 7.83596 12.7391 85 63 53 255 
-0.436794 7.81449 12.7189 86 63 53 255 
-1.51199 3.7093 11.1827 254 230 83 255 
-3.49628 6.29592 11.9718 87 61 33 255 
-3.51288 6.27198 11.9791 88 62 35 255 
-3.07467 3.65329 10.8995 232 49 46 255 
-3.05245 3.6347 10.8915 225 46 41 255 
-2.23552 7.62914 13.6437 85 67 60 255 
-1.59466 3.30089 5.55635 63 45 33 255 
-2.75425 3.939 11.2467 240 154 80 255 
-2.7662 3.91647 11.2627 207 84 47 255 
-1.65719 7.88927 12.1143 81 59 52 255 
-1.68102 7.88327 12.1317 75 54 47 255 
-0.542412 3.8249 5.97358 10 12 19 255 
-0.817537 4.02817 5.92716 108 111 119 255 
-2.87267 3.43755 11.0163 217 39 31 255 
-1.79719 2.73166 11.4109 215 169 64 255 
-1.80775 2.71165 11.4309 210 163 61 255 
0.176299 7.64303 13.9608 84 66 58 255 
0.165775 7.63704 13.9331 83 66 58 255 
-0.79963 5.13433 11.3993 205 180 89 255 
-0.626078 3.73199 6.14107 81 62 50 255 
-0.858875 2.69713 10.8181 247 221 66 255 
-0.889061 2.69556 10.8171 249 227 74 255 
-1.62997 4.87253 11.4866 219 187 99 255 
-1.55499 7.79116 12.5839 105 79 70 255 
-0.685767 6.21581 12.2534 169 137 111 255 
-0.539928 3.98598 6.00085 11 14 20 255 
-0.523793 4.01162 5.99942 12 13 18 255 
-3.684 2.84131 10.7831 235 43 41 255 
-3.66503 2.83766 10.7597 211 38 33 255 
-4.02217 6.72196 12.1059 94 66 33 255 
-4.02281 6.69712 12.0883 95 66 33 255 
-1.12898 3.13947 10.9438 243 219 76 255 
-1.13053 3.1698 10.9409 243 219 77 255 
-2.71734 6.61534 13.1911 108 86 78 255 
-2.71552 6.63072 13.2174 106 85 75 255 
-3.37643 3.43932 10.8238 65 20 24 255 
-3.40322 3.43674 10.8382 63 28 35 255 
-0.895354 2.98813 10.9468 250 227 74 255 
-3.05054 6.18577 12.2779 93 64 36 255 
-3.04286 6.20689 12.2571 86 59 32 255 
-1.06732 3.40804 5.71357 71 53 41 255 
-1.0954 3.41036 5.70141 86 70 56 255 
-4.32623 3.48876 10.9073 212 45 39 255 
-4.32746 3.48189 10.8774 224 47 44 255 
-2.40945 7.68573 12.8813 108 87 74 255 
-2.40544 7.69597 12.91 109 88 76 255 
-4.75818 7.08718 13.03 71 54 40 255 
-4.76339 7.07189 13.0562 67 50 37 255 
-0.83459 4.00335 5.9336 17 17 22 255 
-1.11077 7.21587 12.4324 167 134 107 255 
-1.09949 7.20472 12.406 165 132 104 255 
-1.67715 6.79544 12.7426 114 81 51 255 
-1.6814 6.76507 12.7397 113 80 50 255 
-3.98779 3.44952 10.7137 232 50 46 255 
-3.97297 3.46896 10.7325 236 50 47 255 
-1.08768 6.68077 12.2584 169 138 112 255 
-1.10346 6.70727 12.2586 169 138 113 255 
-1.71181 4.47705 11.3437 230 205 78 255 
-1.87952 3.23569 11.39 236 194 73 255 
-4.60109 7.77216 11.1354 57 40 30 255 
-4.61739 7.78555 11.1128 61 43 33 255 
-2.69471 4.50672 11.6824 209 150 69 255 
-1.5419 6.88352 12.5167 144 113 86 255 
-3.44786 4.40533 10.7654 229 152 56 255 
-3.46878 4.38275 10.7618 249 174 69 255 
-1.95223 2.85176 11.8256 201 140 58 255 
-1.94857 2.88138 11.8172 202 141 57 255 
-0.0129906 3.98101 11.2869 232 218 92 255 
-0.0207189 4.00692 11.2717 232 218 93 255 
-3.16137 2.78482 10.808 194 28 27 255 
-5.86398 7.54291 13.7704 57 41 30 255 
-1.51309 7.13766 12.5456 143 110 81 255 
-0.00589868 4.51845 11.5493 226 216 109 255 
-0.0124649 4.54152 11.5692 225 214 107 255 
-3.06787 7.83269 11.6217 60 41 29 255 
-3.06588 7.82876 11.6526 60 41 29 255 
-0.609273 4.06485 5.97487 103 40 130 255 
-0.62577 4.09129 5.97709 67 23 85 255 
-3.63236 7.77932 11.5445 62 42 30 255 
-3.64276 7.80209 11.5258 72 50 37 255 
-2.64246 3.38226 11.2822 223 56 46 255 
-2.64147 3.35277 11.2719 220 52 42 255 
-4.48612 6.45825 12.6789 108 80 52 255 
-4.48954 6.48914 12.6752 113 84 56 255 
-3.41187 7.81299 11.6101 70 49 36 255 
-0.463082 6.30772 12.3985 154 125 100 255 
-0.459979 6.29815 12.4282 149 118 92 255 
-1.96665 3.41371 11.614 216 167 65 255 
-1.97211 3.40246 11.5852 223 172 65 255 
-4.02419 5.67821 11.8202 99 69 40 255 
-4.01601 5.70532 11.8338 94 65 37 255 
-0.635891 6.05093 12.3107 165 132 107 255 
-0.632989 6.03992 12.2814 165 132 106 255 
-3.13313 4.60794 11.1102 223 152 64 255 
-0.66595 4.99613 11.2517 219 205 93 255 
-0.65759 4.96581 11.2498 225 210 95 255 
-1.17609 3.10905 10.9848 243 217 72 255 
-1.15752 3.08903 11.0006 240 213 68 255 
-1.48016 1.02889 12.2414 229 210 96 255 
-0.485388 3.77737 6.07647 81 61 48 255 
-0.505451 3.77848 6.05202 85 65 53 255 
-5.56885 6.87297 13.8311 188 186 170 255 
-5.58536 6.86462 13.8054 195 191 173 255 
-3.58351 3.25317 10.6903 219 212 232 255 
-3.5659 3.27885 10.6844 212 205 222 255 
-0.710749 4.02781 11.0202 245 228 97 255 
-0.696979 3.99926 11.0197 246 228 95 255 
-0.992909 2.79799 10.8921 250 228 73 255 
-0.568711 4.85508 11.2438 233 218 97 255 
-0.542384 4.85214 11.2263 232 218 97 255 
-4.96851 7.60153 13.2294 93 74 59 255 
-4.9912 7.59927 13.2073 94 75 60 255 
-3.31743 4.23478 10.8291 254 185 68 255 
-3.32485 4.24394 10.8586 252 179 63 255 
-3.72914 5.13278 11.1516 106 19 15 255 
-3.71737 5.11174 11.1309 113 21 16 255 
-0.541562 4.04346 6.00026 13 16 21 255 
-3.72651 6.1682 11.9173 106 75 42 255 
-0.479319 3.92322 5.99579 79 60 49 255 
-1.57475 5.86564 12.3597 120 85 56 255 
-1.55142 5.8848 12.3495 123 87 57 255 
-3.18839 3.30522 10.8709 212 206 227 255 
-3.00871 6.81893 12.5336 76 50 24 255 
-3.0193 6.83454 12.5078 82 55 29 255 
-2.96161 4.00159 11.0005 244 176 74 255 
-2.9463 4.01682 11.0241 243 172 71 255 
-1.4563 7.75684 12.5821 112 84 68 255 
-0.636285 3.74084 6.02392 34 34 43 255 
-1.54204 7.18643 12.5455 134 100 69 255 
-1.67862 3.88233 11.3474 244 214 67 255 
-1.71047 3.88196 11.3438 244 213 69 255 
-3.86668 2.42653 10.7079 228 119 150 255 
-3.89609 2.422 10.7199 234 147 179 255 
-3.92352 7.81679 11.2703 55 38 26 255 
-3.91912 7.84642 11.2818 68 48 35 255 
-2.52021 3.13214 11.5471 218 52 42 255 
-2.53129 3.12633 11.5175 220 52 44 255 
0.345228 7.64104 13.8566 92 74 63 255 
0.373688 7.63156 13.845 94 75 64 255 
-1.52159 3.36842 5.54602 218 220 208 255 
-3.29434 4.35563 10.8454 236 162 58 255 
-3.32095 4.37194 10.8372 254 182 70 255 
-5.21776 7.5763 13.5457 97 77 62 255 
-5.20036 7.59563 13.5649 97 77 62 255 
-1.59415 7.74781 12.5536 104 78 70 255 
-0.823668 3.92236 5.92524 17 17 22 255 
-3.8353 2.49893 10.6809 234 47 51 255 
-3.85608 2.521 10.6694 224 45 48 255 
-1.07581 3.20873 10.9364 245 222 81 255 
-1.104 3.21407 10.9515 243 219 79 255 
-0.949526 3.58985 11.0019 201 184 88 255 
-0.919874 3.60297 11.0014 93 69 43 255 
-3.28433 4.44496 10.8951 221 142 47 255 
-3.29602 4.47521 10.8942 239 163 62 255 
-1.15396 5.96877 12.0361 160 125 94 255 
-1.16107 5.98255 12.0646 159 124 93 255 
-0.582464 3.80384 5.95869 10 14 22 255 
-1.8589 5.18448 12.1326 137 86 39 255 
-0.846894 8.28221 12.7845 92 70 62 255 
-0.831141 8.2637 12.7629 92 70 62 255 
-0.744085 3.92059 5.94251 13 15 20 255 
-2.59786 7.65749 13.0069 112 91 78 255 
-2.60855 7.67897 13.0289 110 89 76 255 
-1.70254 6.77821 12.7607 110 77 48 255 
-1.60211 6.4812 12.53 126 92 60 255 
-1.63065 6.49593 12.5245 119 86 54 255 
-1.64687 7.76344 12.6901 97 71 61 255 
-1.63478 7.75814 12.6603 100 73 64 255 
-5.27522 7.02989 13.8414 123 109 97 255 
-5.27173 6.99806 13.8352 124 112 100 255 
-4.06791 2.57368 10.7843 199 49 47 255 
-4.04801 2.5526 10.7993 219 47 48 255 
-1.73544 3.28481 5.50758 57 39 27 255 
-2.88043 4.16204 11.1363 238 164 66 255 
-0.8109 3.98122 5.93874 52 53 61 255 
-1.36293 5.81787 12.1385 144 108 77 255 
-1.33258 5.80602 12.1354 145 109 79 255 
-3.94459 2.42495 10.745 228 132 166 255 
-3.96054 2.39632 10.7449 224 189 225 255 
-2.56113 4.45411 11.9102 165 99 48 255 
-2.58233 4.47909 11.9115 176 106 50 255 
-1.27122 6.51284 12.1938 156 121 89 255 
-3.24245 6.12925 12.0157 92 63 34 255 
-1.83107 7.2006 12.9607 88 59 36 255 
-1.8438 7.2287 12.9493 84 57 34 255 
-0.51563 3.79027 5.99685 93 79 70 255 
-4.18653 3.26914 10.8261 200 46 41 255 
-4.2123 3.25203 10.8376 200 45 41 255 
-1.85873 4.79703 11.5951 165 100 41 255 
-1.855 4.82451 11.613 165 100 43 255 
-2.99335 7.04377 12.6867 81 54 29 255 
-3.01584 7.01959 12.6853 80 54 29 255 
-3.15398 6.86414 12.3 97 67 38 255 
-3.17962 6.88366 12.2926 95 65 35 255 
-3.39482 3.76393 10.8244 209 41 37 255 
-3.3825 3.7407 10.8043 208 41 37 255 
-3.02032 3.29239 10.9592 135 125 142 255 
-3.01871 3.32542 10.9614 206 199 221 255 
-0.590199 4.11046 5.97809 6 7 13 255 
0.00552678 7.66592 13.5565 86 67 61 255 
-3.10728 2.49423 10.7752 222 150 192 255 
-3.0823 2.47252 10.7774 215 194 233 255 
-4.50768 4.62219 11.1655 186 50 32 255 
-4.6696 7.71936 12.5614 85 67 54 255 
-4.68214 7.7062 12.5336 89 71 59 255 
-0.549059 7.85748 12.7438 91 66 56 255 
-0.553887 7.82649 12.7549 101 74 63 255 
-1.29037 3.66475 11.1138 247 222 76 255 
-1.26192 3.64836 11.1192 244 219 73 255 
-0.840272 3.12809 10.9053 234 215 85 255 
-0.832164 3.14921 10.9298 216 196 82 255 
-2.23268 4.07461 12.0524 161 89 34 255 
-0.327998 2.73187 11.0341 123 106 45 255 
-0.295157 2.73466 11.0396 191 179 85 255 
-1.1034 3.12708 10.9262 245 221 79 255 
-3.7039 7.7547 12.1335 68 47 33 255 
-3.69334 7.7501 12.1021 70 49 35 255 
-0.573689 7.81243 12.7779 131 102 85 255 
-1.36191 5.85132 12.1375 145 109 76 255 
-5.29215 7.57684 12.1897 113 94 80 255 
-3.455 3.34718 10.754 201 192 211 255 
-3.44293 3.33269 10.7817 210 203 222 255 
-0.964059 3.92664 5.90902 21 22 30 255 
-0.120111 4.22887 11.1387 232 219 99 255 
-1.75528 6.04352 12.7053 86 57 34 255 
-1.77545 6.06955 12.712 87 57 35 255 
-1.36506 3.3138 11.0462 242 218 80 255 
-3.8217 7.72599 11.7271 61 41 29 255 
-2.80056 8.06885 11.3984 62 43 32 255 
-2.82991 8.08532 11.3993 61 43 31 255 
-4.70923 7.76077 11.1282 63 46 35 255 
-4.70925 7.79179 11.1151 62 44 34 255 
-0.628457 3.98536 5.97093 64 66 71 255 
-4.87582 7.25762 13.3805 67 50 37 255 
-1.71134 4.40285 11.3281 235 207 71 255 
-1.6909 4.42982 11.3286 242 216 79 255 
-3.73063 2.45894 10.6684 238 48 53 255 
-4.78712 3.29759 11.786 191 66 51 255 
-4.75724 3.28196 11.7823 203 67 54 255 
-0.682942 4.05679 5.96093 31 17 35 255 
-1.78763 3.32759 11.3847 232 196 69 255 
-1.7651 3.31439 11.363 233 198 70 255 
-0.679405 3.52252 10.9601 241 225 88 255 
-0.696054 3.50226 10.9817 237 222 92 255 
-4.25001 2.73701 11.0133 197 36 33 255 
-0.636958 3.76192 6.12912 147 133 119 255 
-4.18341 3.47285 10.8045 218 50 45 255 
-1.17713 5.89096 12.0759 157 121 90 255 
-1.18962 5.92254 12.0796 157 121 89 255 
-2.88919 4.012 11.0441 245 174 75 255 
-4.69125 7.63173 11.9019 72 56 45 255 
-1.2288 7.41395 12.5017 162 128 99 255 
-1.2 7.42792 12.4895 164 130 102 255 
-2.34612 7.38499 14.77 72 56 45 255 
-4.00533 3.20129 10.7678 206 198 216 255 
-3.99928 3.16768 10.771 202 192 210 255 
0.33955 3.55306 11.8948 171 163 102 255 
0.319246 3.57432 11.8771 185 177 106 255 
-3.03331 3.00509 10.9307 116 37 32 255 
-2.31941 7.66626 13.3861 99 79 70 255 
-2.34993 7.65214 13.3792 100 79 70 255 
-3.0736 3.00989 10.9252 117 39 35 255 
-3.07491 2.97891 10.94 194 38 35 255 
-3.41103 7.29797 12.2341 82 56 29 255 
-3.41857 7.31027 12.2653 95 66 36 255 
-1.65125 3.95661 11.2506 245 217 68 255 
-1.61884 3.95401 11.2394 245 218 68 255 
-3.03017 3.16678 10.932 216 207 231 255 
-3.01166 3.19562 10.9349 211 201 225 255 
-0.675603 6.86328 12.4293 173 143 120 255 
-0.679352 6.87834 12.46 174 144 122 255 
-3.11651 3.98025 10.9407 240 156 70 255 
-3.08502 3.99405 10.9426 242 169 69 255 
-3.45686 7.37312 12.2654 84 59 30 255 
-3.43828 7.34813 12.2507 87 61 32 255 
-2.37566 2.98968 12.1039 37 14 10 255 
-2.37541 2.95934 12.0876 45 16 13 255 
-0.488374 4.07693 6.01062 81 62 48 255 
-0.500234 4.10929 6.00986 67 53 43 255 
-3.45344 3.47172 10.7761 201 49 45 255 
-3.46525 3.44102 10.7865 103 24 25 255 
-1.05281 3.4753 5.76664 158 149 133 255 
-1.32335 7.87106 11.8869 82 61 53 255 
-1.29306 7.88302 11.8985 82 61 53 255 
-0.646407 4.01486 5.96891 95 39 101 255 
-4.71636 7.58693 11.6581 77 60 50 255 
-2.67113 7.88976 11.5626 62 43 32 255 
-2.66975 7.87426 11.5935 56 39 28 255 
-2.90026 2.79773 10.9353 221 38 38 255 
-2.92858 2.78063 10.9251 178 27 25 255 
-4.83237 2.7709 12.1469 8 4 10 255 
-4.82983 2.76178 12.1136 7 4 10 255 
-0.538756 4.11412 6.00782 12 16 21 255 
-0.520409 4.14342 6.00987 15 14 15 255 
-2.66717 2.53343 11.0463 236 50 54 255 
-2.69795 2.51843 11.0411 228 61 77 255 
-1.67757 3.39711 11.2658 242 211 72 255 
-1.69395 3.36684 11.27 244 212 73 255 
-3.4687 7.48603 12.3312 82 57 29 255 
-4.00049 3.82775 10.6827 223 110 51 255 
-3.5369 2.70709 10.8995 213 40 36 255 
-3.52169 2.708 10.8683 236 46 45 255 
-3.49039 3.4295 10.7655 96 22 25 255 
-1.02156 3.44387 10.9974 240 220 79 255 
-0.99263 3.42804 10.9865 239 220 86 255 
-3.30244 2.75448 10.7318 206 30 27 255 
-0.67549 7.85195 12.3813 86 65 55 255 
-0.688553 7.83038 12.4052 89 67 58 255 
-3.29138 3.32674 10.8808 215 209 229 255 
-3.2701 3.29932 10.879 200 194 213 255 
-1.10606 3.66363 11.0743 253 232 83 255 
-1.11035 3.68811 11.05 253 234 84 255 
-1.3836 4.68267 11.3008 228 208 79 255 
-1.3919 4.6664 11.2712 234 215 86 255 
-3.71664 5.14683 11.1854 112 21 17 255 
-4.37455 3.23502 10.9537 209 41 35 255 
-4.34893 3.21924 10.9362 197 38 30 255 
-3.92007 3.71617 10.6092 208 48 41 255 
-0.892773 6.32589 12.3056 164 132 102 255 
-0.882156 6.35911 12.3062 164 132 102 255 
-3.07725 2.40674 10.7704 218 220 243 255 
-3.06008 2.42514 10.7462 211 210 240 255 
-4.07605 7.81292 11.6302 64 43 31 255 
-4.06534 7.78571 11.6111 63 43 30 255 
-1.30156 3.41694 11.0737 243 220 79 255 
-1.33528 3.41964 11.0825 243 220 81 255 
-2.98787 3.63772 10.9506 232 50 45 255 
-2.98685 3.66847 10.934 220 45 40 255 
-0.470878 4.04102 6.00421 85 64 50 255 
-0.481856 4.14872 6.02262 79 58 43 255 
-0.464097 4.11874 6.0263 88 67 53 255 
-1.86948 6.32574 12.7699 63 44 26 255 
-1.83593 6.33305 12.7774 71 48 28 255 
-1.41285 2.89432 11.0663 248 219 64 255 
-1.41785 2.87869 11.0352 248 220 64 255 
-3.1009 2.65287 10.7385 207 47 47 255 
-3.07165 2.66965 10.7485 207 52 50 255 
-2.72679 2.54455 11.005 233 51 56 255 
-2.69517 2.55421 10.993 229 46 46 255 
-1.89647 4.35247 11.5047 220 185 66 255 
-1.89376 4.37023 11.535 224 189 67 255 
0.0575344 7.71675 13.5306 76 58 52 255 
0.0432078 7.69474 13.5071 77 59 53 255 
-0.506018 4.04418 6.00441 45 35 31 255 
-2.38321 7.82597 12.4009 104 85 72 255 
-2.37927 7.79956 12.3778 104 85 72 255 
-0.607991 6.02146 12.2982 162 130 104 255 
-0.0384883 7.84574 12.7514 77 58 51 255 
-0.0144759 7.85484 12.7757 75 56 49 255 
-1.53823 4.37303 11.2101 251 229 90 255 
-0.723513 7.10767 12.46 173 143 117 255 
-0.743452 7.12791 12.4811 172 140 114 255 
-1.48019 6.61786 12.4281 147 111 78 255 
-1.28281 3.32581 11.0777 243 218 77 255 
-0.623517 3.11987 10.894 243 223 73 255 
-0.590319 3.1276 10.8844 247 229 79 255 
-3.84481 2.35249 10.6874 235 225 253 255 
-3.84297 2.38727 10.6939 237 211 251 255 
-3.62524 5.36466 11.4997 94 22 16 255 
-0.782173 3.92052 5.93317 14 14 19 255 
-1.50589 2.80204 11.1546 241 211 62 255 
-1.51627 2.76833 11.1587 239 207 61 255 
-2.83195 3.13398 11.0881 222 213 232 255 
-3.89672 3.7078 10.5628 208 48 41 255 
-3.91135 3.67824 10.576 204 47 40 255 
-3.12844 3.12216 10.8716 222 212 234 255 
-3.16398 3.12098 10.8729 206 197 217 255 
-3.23741 3.35718 10.8465 210 202 224 255 
-3.25576 3.34233 10.8732 215 208 229 255 
-3.1143 4.69687 11.1665 220 153 69 255 
-3.11776 4.71633 11.1962 206 139 57 255 
-0.938968 2.75776 10.8822 250 228 74 255 
-0.953283 2.7251 10.8811 244 222 72 255 
-0.573681 4.00455 5.97626 5 6 10 255 
-0.591319 3.97394 5.971 9 10 15 255 
-2.63194 2.5288 11.0426 231 48 47 255 
-3.35084 4.95688 10.9768 125 31 26 255 
-3.37691 4.93245 10.9755 110 22 15 255 
-3.32865 7.46923 12.3718 81 55 28 255 
-3.35648 7.48125 12.3528 83 56 29 255 
0.349924 7.70306 13.5704 90 71 62 255 
0.352342 7.70397 13.6061 91 72 62 255 
-2.05885 3.45249 11.7355 207 142 61 255 
-2.0518 3.44772 11.7007 202 140 57 255 
-4.26494 7.21416 12.3876 105 76 46 255 
-4.28959 7.22501 12.4113 104 76 46 255 
-1.5885 5.75335 12.4026 114 79 51 255 
-3.69669 3.42245 10.6697 207 44 39 255 
-1.53499 3.20692 5.34002 144 144 141 255 
-4.10618 5.75039 11.9125 100 69 40 255 
-4.1379 5.74813 11.9293 115 82 52 255 
-1.24448 6.15425 12.1758 155 120 88 255 
-1.35123 2.77643 11.0919 244 216 63 255 
-1.3581 2.7652 11.0584 243 216 62 255 
-1.03078 3.52462 11.0653 240 219 77 255 
-0.9983 3.51203 11.0562 239 220 81 255 
-2.4864 7.74417 12.7624 110 90 77 255 
-2.47132 7.74365 12.7297 109 87 75 255 
-2.75702 2.5654 10.9523 227 46 48 255 
-2.78515 2.5492 10.9366 234 55 65 255 
-0.523621 4.07726 6.00297 13 14 18 255 
-1.14245 2.69937 10.9644 87 65 27 255 
-1.16887 2.67484 10.9624 182 165 81 255 
-0.772944 5.24062 11.4391 170 130 85 255 
-0.750969 5.23352 11.4113 162 123 80 255 
-1.53636 5.91635 12.3403 125 89 58 255 
-0.132175 2.80697 11.0932 241 223 80 255 
-0.135003 2.77384 11.079 241 222 81 255 
-1.6911 3.71542 11.3256 243 213 66 255 
-1.72575 3.72011 11.3164 243 212 68 255 
-4.21038 4.69546 10.9168 155 38 31 255 
-4.22157 4.71118 10.9474 157 39 31 255 
-1.22067 3.35979 5.64509 79 61 46 255 
-5.0637 7.59619 12.7748 92 74 62 255 
-1.57349 2.98477 11.1919 242 210 64 255 
-3.35667 2.54486 10.6939 184 36 35 255 
-3.3494 2.51412 10.7117 227 51 50 255 
-2.74703 3.93495 11.2114 244 170 85 255 
-1.50305 2.60168 11.1864 239 207 65 255 
0.236859 1.67542 11.7244 224 210 97 255 
-4.12488 7.18835 12.2638 96 69 39 255 
-4.15248 7.18503 12.2872 98 71 41 255 
-3.04042 2.37654 10.7404 218 223 244 255 
-3.0259 2.3949 10.7682 216 219 243 255 
-5.42685 7.2739 13.7391 144 133 123 255 
-3.87376 2.49781 10.6911 247 51 57 255 
-1.52457 3.88402 11.1634 245 218 66 255 
-1.51965 3.89505 11.1977 245 218 66 255 
-3.01883 2.4838 10.7434 221 160 200 255 
-3.05129 2.47086 10.7333 216 182 223 255 
-1.09629 3.36683 5.68566 69 51 40 255 
-0.78277 4.07193 11.0392 234 220 104 255 
-0.761319 4.09124 11.017 239 224 101 255 
-2.97593 7.4593 13.2289 79 54 30 255 
-3.15683 2.67638 10.6983 182 32 31 255 
-3.12315 2.68618 10.7081 185 34 32 255 
-3.90642 7.8483 11.3543 55 37 25 255 
-3.87763 7.87001 11.3598 53 36 24 255 
-1.71956 4.52686 11.3647 228 203 83 255 
-1.68808 4.54329 11.3736 228 205 83 255 
-1.47533 3.32509 5.47375 102 102 100 255 
-2.67956 4.64785 11.5161 128 39 31 255 
-1.47089 3.80676 11.1724 246 219 70 255 
-3.37197 4.47484 10.8402 246 169 66 255 
-3.34126 4.48695 10.8242 227 150 54 255 
-1.25189 3.4496 5.65378 156 158 153 255 
-2.90713 7.07245 13.1229 92 69 51 255 
-2.91106 7.04 13.1061 88 64 46 255 
-3.25749 4.08331 10.8573 253 181 71 255 
-3.22932 4.10609 10.8635 254 188 74 255 
-1.84162 2.74451 11.5074 202 150 54 255 
-1.82953 2.75697 11.475 207 157 58 255 
-3.51968 7.7527 11.8327 60 41 29 255 
-0.490678 3.86158 5.99007 76 58 46 255 
-1.1404 5.71172 11.9946 166 132 106 255 
-1.1046 5.70323 11.9936 167 134 109 255 
-0.786506 3.72263 11.0064 94 69 37 255 
-4.67082 7.77657 11.3192 76 56 44 255 
-4.68695 7.74757 11.3031 73 54 43 255 
-3.663 2.94457 10.7073 96 37 34 255 
-3.68369 2.97438 10.714 72 52 59 255 
-3.85331 2.5215 10.6326 219 46 48 255 
-2.44167 2.95812 12.0338 211 59 46 255 
-2.41237 2.94585 12.0526 182 60 51 255 
-4.82773 3.18912 11.8861 82 31 29 255 
-4.80714 3.20226 11.8584 154 60 52 255 
-1.25199 3.775 11.0979 248 224 73 255 
-1.23397 3.74903 11.0788 248 224 73 255 
-4.70439 2.95056 11.8222 200 60 49 255 
-4.68412 2.94827 11.7914 203 60 50 255 
-3.51026 5.00482 11.0318 117 25 20 255 
-4.02126 2.47983 10.7574 227 48 50 255 
-1.70314 6.17958 12.5523 101 70 43 255 
-1.70445 6.18998 12.5878 101 69 43 255 
-1.17944 3.24813 10.9474 243 218 76 255 
-1.15956 3.25526 10.9778 241 218 76 255 
-2.70518 4.58988 11.5413 191 112 63 255 
-2.71051 4.554 11.549 207 145 75 255 
-1.05925 2.62038 10.9355 190 170 80 255 
-1.07977 2.58949 10.9345 214 195 98 255 
-1.75293 3.22533 5.30758 36 38 41 255 
-3.33636 6.79512 12.1933 83 56 29 255 
-0.888694 0.522803 10.5336 197 155 93 255 
-3.92422 7.81571 11.3528 60 42 30 255 
-4.61601 7.74036 11.1476 64 47 36 255 
-1.1271 5.89395 12.0736 159 124 94 255 
-1.12422 5.90941 12.0399 160 126 95 255 
-4.08599 7.07266 12.1907 92 65 34 255 
-4.11486 7.08181 12.2123 93 66 35 255 
-1.87033 8.21043 11.8434 78 57 48 255 
-1.87404 8.18705 11.8147 84 62 53 255 
-3.26063 7.85971 11.6739 62 42 29 255 
-3.27835 7.82766 11.6806 64 44 31 255 
-1.61303 7.86419 12.0372 84 63 55 255 
-1.5905 7.87901 12.0629 82 60 53 255 
-3.10283 2.94406 10.965 210 36 31 255 
-3.13928 2.93644 10.9626 208 37 31 255 
-1.15247 3.14283 10.9726 243 219 75 255 
-2.98357 6.36064 12.7047 84 57 32 255 
-2.98005 6.39761 12.7008 84 57 31 255 
-0.60264 3.85684 5.94146 11 14 22 255 
-0.567509 3.84902 5.95142 12 15 24 255 
-1.22906 6.3474 12.2639 157 121 89 255 
-1.25111 6.32635 12.2423 156 120 88 255 
-3.09173 3.5054 10.9123 211 44 37 255 
-3.12049 3.48212 10.9177 204 45 43 255 
-3.2836 2.52297 10.7488 232 53 57 255 
-3.31621 2.50473 10.7504 229 55 55 255 
-1.64668 6.4751 12.5587 115 81 50 255 
-1.66003 6.46838 12.593 112 79 48 255 
-3.72037 2.83312 10.7798 235 43 41 255 
-2.01601 4.43221 11.735 201 157 61 255 
-3.92327 3.04149 10.7328 215 206 225 255 
-3.90247 3.01151 10.7415 219 209 229 255 
-3.98119 3.02011 10.8036 215 205 225 255 
-4.0173 3.01081 10.7995 215 205 224 255 
-1.66627 3.19324 11.2745 235 201 68 255 
-1.68536 3.1693 11.2962 233 198 66 255 
-3.42193 2.59066 10.7267 230 47 48 255 
-3.41611 2.60201 10.7621 226 45 45 255 
-3.69692 2.51489 10.6597 223 50 51 255 
-3.73164 2.52945 10.6591 219 51 51 255 
-4.28891 7.76628 11.7954 67 48 36 255 
-4.25904 7.76423 11.8183 63 45 32 255 
-1.2031 3.47179 11.0557 246 224 81 255 
-1.23492 3.49197 11.0571 246 225 82 255 
-0.967069 3.49619 11.0421 239 222 89 255 
-4.02876 3.09099 10.8034 135 119 129 255 
-4.06584 3.08675 10.8091 100 84 93 255 
-0.244357 2.76944 11.0634 93 77 32 255 
-0.25135 2.73342 11.0545 105 87 43 255 
-1.48415 7.82915 12.1026 87 65 58 255 
-1.48291 7.8163 12.0671 88 66 58 255 
-1.73308 7.01766 12.7131 107 76 49 255 
-1.73264 6.99088 12.6864 108 77 49 255 
-3.74568 3.43221 10.6571 205 41 35 255 
-2.95814 7.83899 11.7612 52 34 22 255 
-2.98034 7.83598 11.7307 56 37 26 255 
-2.08358 7.67714 13.5301 88 68 62 255 
-4.82309 7.05679 13.764 96 76 55 255 
-4.13528 7.82064 11.7284 61 41 28 255 
-3.94231 6.97505 12.0807 107 75 42 255 
-3.91652 6.9644 12.1063 91 63 31 255 
-3.65258 6.12239 11.9548 101 72 42 255 
-3.61549 6.12444 11.9622 100 72 43 255 
-3.63255 7.73743 11.9997 67 47 33 255 
-3.64749 7.70996 11.9783 67 47 33 255 
-0.65426 6.27421 12.2625 166 135 107 255 
-0.689507 6.26469 12.2728 165 133 106 255 
-1.61323 7.77909 12.6982 101 74 62 255 
-2.89664 7.86313 11.4885 58 40 29 255 
-2.91133 7.86975 11.5229 65 45 33 255 
-0.550224 3.90855 5.99107 13 15 22 255 
-3.67868 3.25153 10.7241 214 205 221 255 
-3.65141 3.26684 10.7457 231 225 246 255 
0.10168 7.68768 13.7164 77 60 53 255 
0.0637223 7.68631 13.715 80 62 56 255 
0.0549022 3.79824 11.4441 230 217 96 255 
0.0703807 3.83212 11.4363 231 218 101 255 
-3.20534 3.91974 10.9769 206 43 38 255 
-3.24263 3.92724 10.9754 209 44 38 255 
-3.06609 2.94658 10.986 215 39 34 255 
-3.02914 2.9465 10.9952 216 40 34 255 
-1.38707 3.37457 11.0648 242 217 80 255 
-1.35029 3.37898 11.0737 244 220 83 255 
-0.925575 5.25701 11.4323 170 127 78 255 
-0.930528 5.23491 11.463 180 128 67 255 
-3.84921 4.62307 10.8021 200 126 44 255 
-3.74859 2.35912 10.6864 227 215 249 255 
-4.3944 3.111 11.0136 198 47 42 255 
-4.35642 3.10783 11.0112 110 28 28 255 
-0.665088 4.08966 5.96865 39 15 46 255 
-1.00019 2.65509 10.9232 153 134 75 255 
-1.01898 2.62263 10.9306 183 164 86 255 
-0.6419 3.6977 11.0591 244 225 85 255 
-0.618622 3.70457 11.0295 246 229 88 255 
-0.964021 2.78672 10.8502 251 229 74 255 
-2.6424 4.52804 11.7598 207 146 74 255 
-2.61406 4.53074 11.7342 171 97 55 255 
-3.61416 3.36509 10.6883 63 27 32 255 
-3.77925 2.61974 10.7157 194 35 35 255 
-4.54126 7.82093 10.8722 53 36 29 255 
-4.56721 7.8303 10.8988 56 39 32 255 
-1.17143 6.08816 12.075 159 124 93 255 
-1.1685 6.11817 12.0987 169 135 105 255 
-1.11132 4.49447 11.1262 236 216 82 255 
-1.08438 4.52145 11.122 236 216 82 255 
-0.637726 4.13667 11.1082 247 229 95 255 
-0.620482 4.16817 11.0947 246 227 94 255 
-1.49749 3.94141 11.1565 249 223 70 255 
-1.4599 3.94305 11.164 250 225 72 255 
-1.16646 6.26755 12.1804 160 126 94 255 
-1.18455 6.23841 12.1632 161 126 94 255 
-0.11089 3.38346 11.2059 243 225 87 255 
-0.124376 3.35796 11.1806 244 225 84 255 
-3.24014 2.68539 10.6492 201 30 30 255 
-3.25799 2.65156 10.6523 190 28 28 255 
-4.05033 3.11879 10.7854 86 71 80 255 
-4.01337 3.12541 10.7774 72 55 65 255 
-1.70726 4.29175 11.2787 240 212 69 255 
-3.54272 2.41009 10.7205 217 90 114 255 
-1.95175 7.05001 13.4522 39 27 17 255 
-1.92576 7.05483 13.4243 40 27 17 255 
-3.92551 7.87048 11.2525 67 47 34 255 
-2.73172 4.52101 11.6068 214 157 75 255 
-2.6959 4.51292 11.5953 209 153 73 255 
-3.18204 3.92348 10.942 212 45 39 255 
-3.20043 3.95383 10.9271 213 65 39 255 
-1.44986 2.90296 11.1058 245 216 63 255 
-1.47307 2.9091 11.1359 245 215 64 255 
-4.10574 2.57043 10.7908 198 50 47 255 
-0.909598 2.73305 10.8856 249 226 73 255 
-0.113365 3.4477 11.1618 240 227 96 255 
-0.109336 3.41088 11.1509 240 225 90 255 
-1.30511 6.38391 12.2509 151 115 83 255 
-4.84242 7.66127 12.6037 91 73 61 255 
-4.85682 7.6655 12.5681 108 89 77 255 
-4.34766 2.97458 11.0811 203 193 209 255 
-4.38394 2.97687 11.0942 93 58 61 255 
-2.99064 7.02538 12.7206 75 50 26 255 
-1.03909 7.6317 12.5402 169 140 114 255 
-1.01234 7.60404 12.544 169 141 116 255 
-0.892002 5.23145 11.4622 174 126 66 255 
-1.64371 7.9668 11.2853 92 69 60 255 
-1.60699 7.96185 11.2965 85 64 54 255 
-2.7703 3.5151 11.128 220 46 40 255 
-3.30847 4.1278 10.8592 253 181 69 255 
-3.29763 4.1371 10.8952 252 184 72 255 
-4.02228 7.78438 11.7942 64 45 31 255 
-3.61532 3.69867 10.7164 219 46 41 255 
-1.43275 7.68274 12.6093 149 116 86 255 
-2.65112 4.62758 11.533 105 38 28 255 
-0.980636 2.61788 10.9151 71 46 20 255 
-0.999279 2.58508 10.9242 67 43 17 255 
-0.0543284 3.73053 11.2458 231 216 84 255 
-0.0768398 3.70852 11.2231 231 216 84 255 
-1.57615 4.01489 11.2317 244 216 66 255 
-1.61347 4.0058 11.2261 244 216 68 255 
-2.03871 3.33727 11.7081 208 144 60 255 
-2.03967 3.30774 11.7333 207 142 60 255 
-3.17977 6.34897 12.1335 88 61 32 255 
-3.20876 6.37408 12.1397 87 59 31 255 
-3.61231 6.2945 12.003 80 55 27 255 
-1.26641 3.5303 11.105 242 219 78 255 
-1.30235 3.54371 11.0986 244 221 80 255 
-0.372918 2.71593 10.9995 139 123 56 255 
-0.390811 2.75047 10.9978 55 35 22 255 
-4.19702 7.74852 11.9909 65 46 32 255 
-4.21636 7.75787 11.9584 61 43 29 255 
-2.99347 2.95221 11.0098 213 40 33 255 
-1.79982 2.659 11.4314 214 168 63 255 
-1.76499 2.64596 11.4197 222 180 66 255 
-1.33011 3.8192 11.1494 249 224 75 255 
-1.29415 3.83171 11.141 249 224 73 255 
-0.741252 4.32809 11.0768 240 225 96 255 
